ncols         207
nrows         54
xllcorner     -107.644583333
yllcorner     39.0479166658
cellsize      0.04999999998
NODATA_value  -9999
2093.153 2079.6 2061.705 2087.923 2137.778 2155.065 2169.675 2206.673 2196.32 2163.107 2126.085 2056.22 2033.973 2023.047 2028.065 2073.85 2043.31 2039.82 2083.875 2166.183 2226.722 2268.525 2239.31 2232.965 2223.317 2197.123 2175.9 2145.988 2151.495 2193.035 2201.68 2182.13 2140.643 2120.742 2143.895 2144.835 2163.12 2170.48 2151.155 2136.125 2177.992 2225.407 2202.5 2083.83 2097.177 2076.705 1981.48 2036.397 2002.532 1964.765 1955.225 1913.502 1807.26 1768.885 1705.463 1671.682 1669.2 1673.718 1655.675 1653.703 1635.935 1606.385 1594.882 1561.315 1509.657 1447.745 1404.735 1384.51 1365.618 1382.25 1436.1 1423.402 1389.89 1356.152 1361.532 1402.302 1424.887 1410.113 1357.662 1330.248 1331.603 1235.975 1226.498 1218.295 1160.465 1157.1 1143.045 1140.17 1143.118 1142.42 1151.632 1168.77 1232.655 1233.59 1266.225 1294.968 1289.262 1263.465 1230.917 1207.757 1194.245 1180.448 1172.588 1168.845 1161.34 1164.315 1168.752 1169.595 1170.265 1172.218 1168.61 1167.605 1166.177 1174.5 1166.137 1160.67 1157.877 1152.44 1143.925 1138.353 1125.522 1122.12 1110.267 1098.05 1082.782 1075.01 1067.118 1061.988 1060.863 1052.223 1055.123 1046.065 1036.323 1028.46 1011.607 998.6175 985.52 974.7275 958.62 951.5575 940.5075 923.3125 907.6225 907.34 893.17 877.6225 865.47 861.1975 869.6425 863.7825 850.44 839.45 831.62 824.035 822.16 820.2425 801.3625 771.5375 776.5375 799.3925 795.29 791.5775 789.0425 768.9175 761.5675 748.2275 727.865 728.5625 725.8875 720.615 694.5525 661.895 657.1875 684.4575 682.1725 694.8275 676.255 666.405 658.13 645.7225 636.4375 620.3975 617.7275 603.29 607.9875 617.335 622.125 628.94 624.1125 610.6125 591.285 559.6975 556.395 563.7175 563.735 574.9175 559.35 543.0875 523.51 541.28 525.97 512.5125 517.5875 505.59 501.8075 493.23 504.975
2131.345 2106.875 2141.82 2196.438 2194.923 2232.01 2311.915 2221.823 2330.258 2232.938 2197.67 2132.66 2081.698 2068.95 2039.448 2063.758 2085.038 2083.68 2077.575 2152.695 2323.907 2483.135 2539.942 2273.708 2249.485 2265.558 2253.55 2235.83 2244.695 2267.558 2185.37 2179.627 2166.673 2166.44 2195.938 2187.385 2173.265 2150.95 2153.992 2138.522 2157.115 2183.715 2216.867 2265.405 2239.01 2212.688 2105.455 2155.482 2111.232 1991.438 1927.073 1861.005 1794.512 1753.037 1765.05 1757.365 1730.3 1704.527 1663.672 1646.147 1644.44 1637 1584.917 1522.995 1512.532 1481.23 1479.667 1473.35 1376.555 1378.828 1410.26 1439.2 1396.877 1376.047 1377.625 1355.132 1335 1346.53 1395.01 1317.81 1311.743 1315.34 1329.387 1271.078 1236.218 1253.525 1205.262 1158.225 1145.823 1134.537 1122.875 1127.83 1136.015 1145.055 1179.953 1215.772 1240.785 1262.5 1250.588 1219.325 1199.625 1187.313 1175.002 1185.073 1166.72 1152.74 1167.025 1163.257 1163.01 1168.615 1166.545 1169.813 1164.58 1163.473 1165.955 1157.125 1150.075 1150.493 1141.297 1135.27 1129.28 1118.425 1098.813 1090.185 1077.71 1070.693 1068.755 1053.713 1050.505 1045.145 1041.573 1041.065 1032.603 1018.972 1000.938 985.7525 980.165 964.795 950.085 939.7875 931.66 918.985 910.1525 907.975 896.59 882.1 882.3675 878.0125 873.4225 858.465 850.385 846.07 851.325 838.925 825.745 824.53 825.6275 808.8475 770.8825 748.6625 751.5975 752.01 747.145 738.135 729.9075 730.1575 738.635 758.415 739.7875 712.3575 697.6775 682.1425 653.4975 636.365 658.6925 671.36 674.38 681.32 672.655 665.98 663.325 652.5075 643.2175 628.4375 604.425 587.6075 586.4475 594.3025 598.71 605.31 595.45 580.3175 566.3375 537.67 548.8025 556.06 561.9175 545.5425 529.21 513.105 523.745 521.87 519.02 510.9325 512.2675 501.6475 498.855
2156.573 2151.137 2181.387 2218.923 2385.195 2396.885 2241.82 2185.79 2180.555 2151.16 2209.07 2190.153 2132.875 2075.38 2077.01 2123.617 2114.107 2114.835 2116.907 2204.353 2348.107 2760.903 2817.12 2359.887 2327.343 2352.335 2341.15 2375.38 2342.657 2274.137 2247.035 2237.635 2211.103 2190.548 2165.823 2147.567 2135.435 2146.248 2150.09 2143.225 2166.65 2214.625 2329.228 2388.81 2325.455 2280.81 2173.305 2172.103 2119.968 1911.152 1859.353 1883.69 1853.473 1838.998 1813.72 1765.723 1724.225 1696.368 1670.5 1645.983 1625.603 1615.7 1581.115 1552.493 1534.51 1531.542 1502.802 1464.605 1426.62 1409.157 1431.483 1428.855 1413.177 1401.66 1389.45 1379.585 1366.132 1347.287 1320.195 1305.99 1295.132 1278.48 1259.027 1246.392 1270.095 1277.932 1269.865 1207.8 1189.287 1157.18 1144.307 1126.343 1113.105 1106.02 1109.04 1124.318 1163.05 1209.002 1222.745 1217.502 1213.69 1196.385 1178.478 1175.203 1174.045 1153.927 1157.917 1160.585 1159.255 1159.287 1161.407 1161.483 1162.47 1152.285 1157.695 1156.172 1144.53 1144.123 1138.438 1134.537 1121.825 1114.06 1095.767 1085.835 1078.87 1067.238 1053.82 1049.755 1040.698 1033.625 1036.667 1023.398 1022.455 1011.11 1003.795 990.735 972.52 959.21 954.71 939.3325 926.7975 919.8225 917.32 914.275 905.7175 899.8975 885.0125 869.98 863.36 860.605 852.97 837.62 834.7975 846.69 835.22 803.715 819.935 799.13 778.2675 772.8275 763.15 750.3375 749.8 742.755 734.95 714.6025 701.7225 722.1925 739.845 714.4825 688.075 671.17 681.405 648.575 624.1525 632.94 640.9475 659.22 667.945 658.0175 667.4325 664.475 657.93 639.19 619.9575 603.0925 590.405 572.5275 565.6325 574.57 591.9475 579.595 580.6725 557.0975 525.6225 544.5475 552.5725 540.7775 531.5575 517.335 500.9425 514.74 508.5775 510.1725 501.01 491.78 485.2475
2169.143 2192.058 2228.77 2390.367 2360.98 2269.43 2228.565 2178.49 2135.278 2110.238 2089.607 2077.225 2064.948 2047.89 2107.06 2116.637 2123.74 2118.21 2133.488 2170.61 2283.9 2427.813 2364.59 2419.065 2421.505 2578.313 2571.617 2635.515 2587.825 2421.11 2321.72 2278.42 2234.555 2188.885 2165.135 2154.17 2168.635 2173.4 2166.855 2151.15 2178.95 2224.232 2400.815 2431.738 2343.92 2229.985 2106.837 2001.517 1995.59 1968.188 2027.897 1962.79 1907.88 1853.782 1808.517 1777.662 1754.412 1717.76 1687.98 1688.498 1674.155 1665.877 1643.15 1614.208 1589.343 1565.552 1519.557 1500.695 1481.025 1447.733 1453.228 1506.49 1482.848 1456.493 1438.1 1430.887 1410.892 1379.235 1366.478 1362.063 1353.905 1336.637 1300.97 1275.97 1258.88 1233.208 1212.85 1200.085 1188.395 1168.527 1154.547 1139.68 1147.007 1135.012 1115.603 1099.65 1090.743 1110.24 1155.463 1198.032 1210.5 1206.073 1188.31 1156.323 1159.3 1169.767 1149.19 1136.958 1153.12 1151.56 1153.125 1151.527 1151.69 1148.185 1152.915 1149.083 1138.022 1133 1136.52 1129.488 1110.99 1103.012 1093.985 1089.43 1071.085 1057.512 1050.802 1040.675 1032.323 1023.98 1015.85 1019.097 1015.057 1005.268 1001.237 991.675 984.2575 975.7325 966.6925 950.385 938.855 927.9225 920.575 907.74 894.1975 889.0325 892.97 878.92 877.8775 867.5575 865.6125 854.1425 841.445 831.48 826.5 819.3425 807.72 802.5375 807.865 796.94 785.8625 782.6875 775.685 774.445 757.0275 742.9925 719.6625 691.2125 720.58 725.8325 709.01 679.82 671.55 654.9975 658.275 631.875 618.08 616.6925 651.895 638.045 652.2425 637 639.045 625.3025 633.255 623.215 613.1575 600.76 584.4475 555.9625 564.9475 581.8025 562.84 565.6275 535.1275 516.5325 528.4425 540.0425 519.0675 525.1525 506.0575 490.2125 495.66 498.2525 500.475 495.395 480.5975
2197.32 2226.133 2273.845 2332.42 2382.81 2507.252 2438.698 2219.738 2154.188 2127.535 2117.68 2141.198 2171.452 2154.755 2092.567 2078.65 2100.89 2089.177 2114.653 2216.117 2528.597 2600.308 2389.183 2475.945 2553.647 2640.295 2742.942 2809.337 2835.623 2699.465 2449.758 2341.705 2290.1 2244.942 2212.645 2211.01 2208.26 2186.69 2162.75 2157.265 2182.532 2212.26 2390.607 2454.45 2371.688 2291.03 2175.613 2022.182 1983.79 2064.985 2052.575 2002.882 1936.24 1883.162 1838.728 1803.593 1772.167 1761.195 1745.77 1714.43 1704.925 1677.62 1638.635 1614.022 1595.805 1550.41 1519.772 1500.21 1472.392 1459.815 1490.33 1597.555 1593.892 1570.078 1527.53 1510.255 1499.145 1486.363 1436.835 1467.015 1448.282 1430.235 1378.547 1393.797 1353.973 1322.81 1262.063 1248.652 1256.932 1229.693 1223.23 1184.435 1182.295 1163.665 1156.652 1141.32 1113.15 1097.585 1079.892 1092.368 1119.688 1147.49 1171.32 1174.932 1144.03 1143.507 1155.448 1135.828 1118.62 1142.373 1146.958 1145.017 1139.61 1143.88 1144.568 1141.405 1133.127 1131.565 1117.315 1122.343 1108.017 1103.72 1084.885 1082.125 1067.465 1058.735 1041.063 1030.64 1018.905 1011.747 1002.06 1000.742 1003.43 997.6775 992.505 985.0275 979.1025 967.74 954.375 935.865 927.59 912.5775 895.5125 885.41 877.1775 864.36 877.495 865.18 896.775 904.91 914.61 907.99 881.1575 883.3275 839.1875 823.355 811.5175 816.985 838.7775 818.5 792.2375 793.39 785.935 790.335 777.365 745.75 732.32 699.975 687.59 709.8525 716.2475 711.5275 682.69 654.915 646.895 642.7725 634.0325 601.625 623.06 622.0175 642.8525 640.0525 614.8575 607.3875 608.8525 622.6425 606.965 594.22 585.4325 577.6175 546.4375 556.4125 563.3675 554.1925 550.4825 534.4675 509.2725 525.585 513.2325 517.75 511.2225 494.6 474.075 473.935 476.0275 467.7475 463.0925
2145.19 2150.44 2271.915 2234.395 2360.785 2447.345 2455.268 2290.355 2205.063 2219.907 2267.395 2352.98 2332.063 2224.685 2127.36 2092.015 2072.363 2092.11 2131.397 2214.903 2527.735 2610.992 2786.3 2668.66 2756.79 2818.03 2948.843 3058.755 2967.8 2959.385 2648.367 2433.725 2329.905 2272.775 2226.85 2212.385 2201.915 2177.427 2161.002 2167.288 2175.995 2208.56 2331.475 2505.258 2425.958 2343.683 2277.775 2161.837 2056.603 2113.06 2090.768 2034.44 1979.905 1919.167 1852.432 1826.045 1801.353 1772.563 1742.295 1717.86 1697.345 1670.29 1657.733 1645.495 1618.66 1600.59 1599.458 1607.83 1584.11 1596.95 1590.387 1623.425 1602.9 1584.652 1565.103 1547.645 1533.635 1528.307 1513.382 1501 1483.427 1460.39 1431.74 1413.713 1387.8 1328.585 1301.647 1351.537 1339.682 1322.16 1285.035 1251.41 1246.573 1233.093 1224.765 1213.468 1204.39 1196.698 1142.797 1104.488 1080.188 1067.195 1079.145 1095.443 1114.875 1098.488 1134.1 1132.787 1136.155 1110.28 1136.5 1136.892 1130.552 1129.04 1136 1125.813 1122.468 1112.265 1116.865 1105.882 1101.593 1091.468 1085.46 1078.43 1062.292 1051.635 1045.863 1024.938 1008.003 995.6275 989.5525 982.8325 992.8925 989.965 987.8825 978.6025 968.73 961.6225 938.0125 918.4575 905.41 908.1425 898.3075 888.495 878.91 885.96 912.9625 861.485 873.2475 892.44 889.63 914.0375 911.705 908.7275 895.035 860.245 817.0275 809.5625 838.4325 819.2475 799.8175 785.74 762.335 758.2375 744.9575 747.72 741.4975 715.7475 687.9625 677.9775 691.765 701.3775 700.945 676.78 661.3725 638.665 626.6075 610.67 594.0025 612.5175 619.9725 633.45 620.31 613.2775 598.4875 611.375 592.2325 579.94 570.5475 562.475 563.6075 538.115 556.47 542.755 552.27 539.8075 521.4275 500.5625 507.1875 479.18 469.8825 461.505 455.145 455.5325 454.9325 453.83 452.52
2109.94 2159.55 2307.942 2262.02 2306.72 2450.022 2414.855 2397.815 2383.855 2396.597 2380.655 2297.802 2255.02 2236.96 2185.708 2153.755 2126.623 2098.103 2138.143 2234.133 2307.85 2492.768 2782.593 2803.097 2919.41 2986.377 3123.563 3236.673 3131.772 3064.228 2816.52 2503.555 2366.755 2271.57 2225.995 2206.133 2184.907 2170.708 2164.448 2167.558 2174.192 2199.083 2276.107 2497.813 2429.698 2367.218 2303.435 2207.075 2076.44 2014.787 2015.613 1989.828 1959.733 1935.098 1912.313 1889.205 1860.002 1827.458 1795.79 1778.613 1766.16 1753.547 1733.432 1738.392 1725.968 1701.88 1688.927 1670.71 1656.35 1645.845 1634.13 1615.03 1601.318 1581.55 1567.838 1551.395 1535.155 1515.328 1501.267 1486.757 1476.525 1456.468 1428.272 1397.693 1381.815 1370.458 1365.68 1382.08 1368.552 1352.157 1326.902 1315.848 1306.36 1290.137 1277.225 1264.93 1253.72 1241.608 1215.515 1181.56 1147.245 1103.92 1085.172 1057.752 1043.443 1047.5 1068.915 1092.095 1117.245 1082.8 1118.94 1125.225 1119.373 1116.762 1113.99 1111.72 1105.195 1094.895 1099.325 1090.052 1092.055 1081.453 1075.89 1068.218 1058.748 1043.127 1034.705 1018.005 1006.34 987.5725 968.045 971.1575 978.46 976.2975 976.995 970.0475 960.0175 955.3475 951.14 938.295 924.0725 920.405 923.1425 922.9525 920.7125 913.5975 915.275 880.4375 840.52 835.195 847.595 850.6525 876.085 883.345 859.81 876.8675 850.59 801.34 785.2325 773.605 770.02 777.88 775.705 761.675 731.5175 726.13 722.955 731.2875 695.6 679.5825 663.0225 683.1975 685.7325 695.855 666.395 653.59 641.1225 635.4725 611.8575 585.3025 602.8775 627.94 631.56 612.78 591.225 606.13 609.3275 592.12 575.095 563.5175 545.175 525.705 530.4525 542.2575 528.4275 528.205 518.5825 490.38 475.4525 472.6125 468.3025 463.27 460.2475 453.6225 443.775 440.885 435.435
2072.14 2121.403 2276.955 2307.03 2360.14 2357.665 2406.33 2410.692 2414.585 2406.32 2342.258 2309.605 2277.542 2237.728 2205.83 2158.198 2179.548 2167.125 2131.728 2265.78 2337.02 2412.748 2553.748 2811.81 3090.73 3162.9 3311.688 3309.472 3121.583 2982.04 2806.3 2471.025 2330.157 2251.72 2221.61 2202.262 2190.448 2175.798 2164.817 2196.817 2184.055 2198.218 2328.145 2459.698 2494.438 2400.063 2333.913 2244.542 2127.933 2065.795 2108.933 2069.11 2029.955 1997.04 1967.127 1933.71 1904.693 1877.255 1848.392 1818.797 1795.963 1773.26 1756.127 1734.657 1717.807 1701.965 1687.105 1673.895 1658.985 1642.065 1623.473 1608.51 1598.323 1581.932 1565.655 1550.295 1533.182 1518.685 1499.28 1485.063 1468.652 1450.6 1438.848 1441.968 1432.855 1420.49 1400.06 1378.805 1361.31 1349.825 1337.958 1327.193 1313.75 1298.873 1284.843 1272.453 1258.835 1242.97 1228.938 1219.228 1190.32 1130.127 1150.33 1168.677 1119.132 1065.973 1033.873 1026.667 1036.815 1039.932 1064.512 1089.63 1094.41 1092.695 1090.557 1092.458 1088.203 1083.353 1080.285 1074.448 1080.052 1071.787 1065.718 1056.328 1052.468 1036.267 1017.44 1001.912 994.365 973.74 958.735 951.1275 959.23 964.205 960.315 960.5825 960.6 955.805 945.755 936.605 928.375 920.8925 923.19 911.74 904.8075 906.675 906.4275 885.3525 856.65 842.095 829.79 818.65 818.5625 835.36 828.015 828.3375 842.0925 825.54 809.78 791.74 766.715 752.9175 748.0525 750.2375 746.8975 722.02 717.52 703.1275 715.5525 703.43 681.5225 653.21 677.645 685.6675 679.235 661.48 639.955 626.27 622.5 603.2 584.8175 612.0675 612.79 611.8725 589.085 590.7525 596.5375 584.825 586.9 571.5675 563.505 556.3125 536.3375 504.575 499.1025 490.675 492.935 487.545 482.2 477.155 472.0325 465.3925 459.905 450.2925 444.81 440.0375 436.555
2038.203 2163.725 2225.705 2245.272 2286.935 2295.915 2366.528 2351.022 2448.042 2550.455 2557.097 2546.157 2474.712 2345.105 2245.59 2220.863 2219.282 2170.458 2146.93 2245.097 2292.718 2463.552 2626.518 2706.14 2941.942 3125.913 3174.825 3173.583 3018.792 2757.32 2626.028 2482.275 2335.1 2284.335 2277.265 2260.018 2245.373 2225.992 2206.535 2210.4 2184.225 2207.137 2316.587 2524.195 2512.61 2444.692 2367.88 2270.625 2158.137 2079.595 2048.022 2064.66 2036.098 1991.948 1947.012 1912.69 1884.52 1863.83 1844.647 1823.605 1800.53 1781.14 1760.9 1740.052 1717.983 1699.605 1676.818 1656.635 1636.563 1630.432 1617.248 1599.565 1580.262 1565.72 1550.005 1536.25 1530.04 1512.975 1494.593 1478.488 1464.44 1452.368 1444.885 1434.402 1422.965 1410.873 1396.632 1380.22 1364.333 1349.392 1335.853 1325.38 1314.785 1300.83 1283.233 1269.03 1255.762 1245.042 1233.703 1217.132 1173.762 1159.762 1183.27 1185.11 1175.6 1158.735 1126.375 1084.465 1069.323 1031.328 1017.177 1016.177 1030.772 1053.51 1052.583 1055.5 1061.76 1064.605 1060.345 1048.922 1053.75 1050.88 1052.825 1044.09 1039.672 1025.167 1009.375 1000.125 991.715 974.7125 956.23 934.9825 950.465 962.5625 958.8575 941.9175 948.4425 946.42 941.7875 929.3875 918.9275 914.5925 914.34 909.3975 902.865 902.81 896.26 904.1625 908.35 891.025 851.97 836.52 841.2425 805.465 809.6575 805.9425 801.015 828.515 804.63 803.565 798.0925 777.4725 756.5075 734.9975 728.6775 736.0075 738.775 718.2875 698.8525 709.73 694.7475 668.91 647.505 674.65 669.7425 665.345 662.92 650.305 633.7925 615.0975 585.1925 573.8025 589.73 592.115 585.19 567.51 579.8925 570.86 570.22 552.665 535.6575 520.4775 508.1925 502.11 497.6725 492.39 487.2525 482.93 478.155 473.1775 467.98 463.1 459.535 457.265 452.5775 455.26 460.685
2025.623 2094.633 2191.115 2259.46 2273.347 2237.147 2268.623 2275.228 2386.762 2618.188 2650.47 2729.51 2758.96 2513.435 2370.748 2278.925 2234.667 2192.593 2198.47 2180.58 2218.025 2314.577 2560.39 2670.92 2867.59 2930.748 3059.262 3060.353 2964.157 2764.387 2407.018 2453.952 2430.897 2292.135 2292.34 2240.738 2205.36 2198.71 2207.833 2192.208 2186.792 2212.825 2297.647 2537.087 2580.712 2471.32 2387.982 2312.33 2235.71 2130.885 2071.837 2085.613 2044.652 2003.53 1963.397 1922.307 1883.42 1848.733 1823.16 1805.238 1789.057 1770.095 1755.583 1734.95 1713.175 1692.052 1672.828 1652.59 1617.235 1593.757 1598.672 1601.945 1590.938 1575.91 1552.895 1533.28 1508.155 1494.713 1479.7 1457.307 1445.373 1423.723 1424.95 1420.152 1408.54 1395.218 1383.815 1376.432 1361.963 1348.895 1334.302 1319.74 1306.92 1294.348 1283.29 1269.66 1257.282 1242.085 1225.243 1201.167 1185.647 1188.172 1193.123 1188.09 1171.302 1160.98 1160.82 1144.382 1135.382 1122.645 1080.252 1062.38 1036.748 1010.72 1003.213 1001.515 1010.497 1022.225 1027.25 1010.43 1007.497 1024.655 1024.335 1028.305 1022.912 1012.63 995.365 987.5975 982.5625 964.6725 940.9025 926.77 941.0725 941.4175 940.4975 932.57 919.2975 927.6225 928.69 920.88 915.725 909.115 903.255 900.8225 903.72 897.4975 896.425 904.4175 918.17 917.0925 861.99 880.4675 829.68 806.2 793.73 786.04 775.2025 783.405 785.3525 775.735 792.935 787.905 773.4475 755.14 734.7825 709.375 719.695 719.36 703.8875 685.46 699.43 676.785 651.18 637.095 662.5575 657.7 642.3975 642.1425 628.93 622.6875 604.735 580.775 559.59 559.3525 549.735 541.9475 541.4175 533.335 526.1125 518.48 517.0425 521.5975 523.9525 513.1375 503.7625 496.975 491.1675 485.74 480.6675 476.4225 472.6825 471.4 480.205 486.12 492.025 500.69 494.135
2049.663 2067.84 2197.913 2319.052 2295.555 2248.99 2426.788 2395.647 2425.24 2712.183 2890.95 2966.66 2948.133 2780.305 2596.51 2414.05 2290.87 2195.603 2206.433 2219.452 2297.51 2274.982 2396.98 2533.472 2678.663 2886.155 2994.58 2941.288 2919.492 2709.377 2443.58 2493.252 2738.15 2263.54 2224.505 2218.365 2210.843 2204.93 2196.528 2199.395 2205.55 2238.275 2356.927 2572.482 2610.345 2509.542 2409.313 2313.535 2218.335 2134.012 2042.255 2036.48 2031.705 1993.757 1960.39 1926.045 1892.52 1871.605 1842.525 1817.28 1785.863 1764.603 1741.943 1721.985 1700.953 1678.34 1658.542 1640.177 1605.262 1570.488 1558.238 1559.485 1542.695 1520.985 1505.703 1500.13 1487.348 1472.055 1470.743 1466.037 1447.81 1435.502 1419.767 1399.07 1384.845 1370.415 1359.118 1354.387 1342.425 1331.652 1332.75 1328.603 1314.305 1298.275 1280.228 1270.368 1260.765 1246.195 1217.172 1202.725 1202.535 1200.132 1193.025 1186.52 1175.515 1161.305 1151.04 1150.345 1137.56 1130.71 1132.412 1137.795 1123.41 1087.198 1085.873 1053.858 1016.468 1002.23 995.425 983.8575 958.8125 952.2975 967.825 991.2525 999.32 989.4275 970.5725 949.705 949.7975 934.03 916.145 898.9775 899.125 894.1375 888.3975 885.2425 887.2725 896.485 913.225 914.9575 902.545 907.4575 896.435 897.2425 892.255 901.5475 893.245 909.39 914.835 921.0775 900.575 883.4625 877.68 847.8875 833.0025 818.655 805.9775 767.9475 766.425 753.72 768.7075 764.88 780.58 772.28 757.205 725.515 704.9375 692.955 696.7125 680.39 687.12 686.0775 666.335 636.5075 632.7625 657.7 652.5275 627.5275 619.4975 612.9375 608.03 600.1525 583.9575 559.17 546.8625 563.5925 556.635 543.345 538.6625 539.9075 532.4675 522.2225 516.98 509.64 502.19 496.9375 492.6125 494.3125 494.565 497.09 508.295 511.91 509.7675 504.615 501.595 497.0575 490.905
2075.522 2075.552 2141.9 2331.528 2350.573 2305.073 2410.972 2422.327 2427.48 2576.42 2805.52 2992.653 2998.663 2892.883 2709.357 2542.377 2416.44 2414.505 2355.155 2275.482 2278.3 2372.945 2340.258 2390.195 2589.43 2778.313 2897.768 2831.795 2818.765 2812.015 2658.542 2547.242 2623.58 2267.855 2239.13 2225.03 2211.52 2201.525 2207.06 2221.367 2228.315 2257.645 2360.498 2532.462 2542.952 2496.897 2413.748 2320.68 2222.968 2115.573 2030.858 1992.14 1983.762 1944.047 1915.565 1891.458 1878.39 1853.115 1848.865 1829.905 1802.23 1774.875 1750.275 1725.305 1700.29 1672.21 1655.568 1630.667 1606.088 1579.78 1557.453 1565.31 1551.665 1537.792 1554.11 1550.5 1533.483 1514.965 1501.775 1488.157 1473.42 1457.48 1440.083 1427.065 1411.01 1398.017 1381.983 1374.718 1359.422 1338.368 1306.088 1293.505 1302.272 1283.802 1264.063 1248.027 1241.363 1228.525 1210.99 1199.017 1210.493 1205.863 1196.13 1188.098 1177.22 1162.155 1151.12 1142.565 1135.458 1125.21 1115.005 1111.353 1117.21 1118.002 1111.14 1103.865 1076.605 1058.557 1041.6 1049.39 1028.703 1008.36 977.145 952.8675 945.3725 936.1425 925.0525 923.92 917.7025 914.605 904.7725 892.855 886.0825 879.565 873.9325 867.7725 862.0325 859.165 871.335 890.47 887.6975 899.555 889.4225 878.9975 883.405 887.4175 884.56 895.2625 909.7125 890.3725 895.6875 872.7525 882.98 864.455 850.1975 837.16 810.4125 794.2575 768.165 749.7775 733.3025 747.5625 754.29 756.435 748.84 734.7675 724.3925 699.0225 680.915 673.6375 666.5475 683.795 680.8675 657.2975 621.8575 626.795 645.81 636.39 624.095 607.995 597.1 592.1575 579.01 554.045 564.61 568.7175 561.14 556.535 547.185 534.505 528.6725 522.5825 515.0325 509.1675 505.7975 501.67 508.025 529.7375 525.7075 519.5025 511.8725 510.4225 503.8925 500.3575 498.855 493.625 487.0425
1980.318 2086.91 2150.29 2234.27 2219.863 2181.788 2310.633 2409.653 2446.192 2489.163 2566.145 2699.008 2989.633 3059.478 2946.268 2728.823 2538.41 2517.335 2733.035 2544.105 2453.035 2399.758 2346.252 2447.853 2445.205 2654.988 2771.518 2730.232 2715.623 2754.27 2738.438 2566.85 2397.107 2399.228 2255.4 2225.875 2221.56 2225.903 2244.948 2258.945 2271.177 2279.952 2335.2 2439.62 2475.59 2474.135 2407.323 2345.232 2278.242 2187.218 2101.33 2090.268 2037.615 1981.98 1925.843 1884.397 1855.175 1831.21 1820.318 1807.402 1778.603 1766.31 1743.417 1718.618 1694.995 1671.895 1650.315 1629.642 1612.688 1588.955 1569.78 1607.205 1600.52 1593.938 1573.3 1556.215 1536.575 1521.28 1509.295 1492.838 1487.945 1474.302 1456.713 1439.257 1422.892 1411.297 1394.775 1362.868 1339.2 1313.82 1300.517 1290.828 1278.895 1273.79 1260.725 1252.495 1241.285 1227.762 1220.44 1202.605 1179.752 1167.575 1167.68 1173.335 1165.873 1156.752 1143.3 1129.203 1121.895 1116.78 1103.65 1096.73 1091.565 1081.745 1062.795 1043.04 1023.885 1004.032 992.5875 987.9375 979.0925 971.88 970.33 964.3975 960.0825 954.6 947.4375 934.7575 921.7825 918.9775 922.9025 910.28 900.6525 890.5275 878.9575 869.9575 862.3275 856.9875 849.91 851.175 859.5575 866.91 872.7575 862.56 871.06 869.69 872.5175 873.75 891.565 880.815 881.8925 861.7925 859.4725 866.7125 877.1575 853.1375 827.57 805.0325 784.8625 771.075 746.9675 728.4 720.2025 731.0675 733.7975 720.3425 731.1975 719.09 698.97 677.0475 659.805 668.745 671.1475 666.3325 648.0325 621.2075 619.71 630.6725 618.4675 613.4075 596.175 587.9925 564.57 564.695 577.345 571.9325 564.825 553.445 541.245 536.925 531.22 523.5075 518.5275 513.625 510.1325 517.515 534.8825 531.45 523.42 513.5725 511.1175 503.53 499.09 498.9375 490.88 486.4275 482
1961.088 2047.14 2059.645 2086.248 2096.117 2145.51 2221.147 2326.825 2301.012 2353.087 2450.298 2569.85 2791.895 2902.337 2933.485 2917.343 2708.633 2805.383 2870.52 2823.917 2747.7 2562.295 2381.195 2379.085 2455.867 2624.535 2637.01 2661.095 2772.83 2783.475 2747.373 2658.833 2434.663 2515.115 2328.285 2281.353 2256.775 2252.27 2276.645 2321.472 2436.683 2371.78 2360.877 2430.058 2396.895 2388.82 2395.24 2352.772 2301.145 2234.327 2168.825 2105.397 2042.757 1984.745 1945.417 1910.23 1867.575 1869.657 1857.223 1826.21 1800.48 1774.935 1746.127 1711.917 1683.335 1666.093 1649.655 1630.328 1611.695 1590.313 1582.098 1633.922 1617.017 1597.243 1590.375 1575.385 1557.475 1543.608 1522.35 1510.175 1496.912 1481.505 1466.675 1453.26 1435.23 1419.858 1400.688 1360.765 1326.98 1341.652 1338.368 1331.91 1317.943 1305.1 1291.57 1281.262 1268.495 1259.14 1246.927 1236.45 1224.705 1204.445 1171.215 1142.4 1132.62 1147.095 1132.01 1115.6 1097.463 1091 1075.635 1053.598 1036.502 1019.593 1011.318 1012.833 1020.602 1026.19 1032.625 1024.115 1016.755 997.145 998.67 988.63 976.0525 968.6825 965.86 954.545 952.7975 957.875 949.38 951.8675 939.84 933.46 923.4575 910.88 898.9775 892.02 879.3775 860.765 842.39 832.33 827.175 824.295 835.0125 848.4125 856.0075 848.8375 857.245 862.065 853.8275 858.5775 837.2875 843.55 844.8425 837.64 828.0275 816.315 788.875 775.4825 765.245 747.6125 734.845 710.5025 702.39 707.51 711.3525 713.485 694.325 689.1775 662.3675 646.54 646.09 648.7275 642.8375 635.5225 616.43 603.5175 595.5875 591.7125 588.0575 576.77 574.4325 583.6125 580.25 571.36 561.505 549.875 545.715 539.9275 532 526.6875 524.4975 526.085 534.7125 535.6475 529.895 526.07 519.1325 513.6325 509.5975 508.695 504.83 500.485 497.3825 492.3825 488.8725
1960.943 1966.93 1977.963 1998.655 2028.807 2116.673 2166.367 2336.765 2176.938 2281.232 2295.192 2320.4 2439.66 2646.663 2808.923 2679.768 2617.147 2749.063 2943.718 2984.615 2688.462 2595.637 2546.468 2463.515 2416.002 2493.005 2567.725 2659.593 2721.415 2734.635 2675.975 2568.38 2403.265 2479.163 2416.33 2316.215 2294.617 2330.272 2366.877 2488.893 2611.248 2505.095 2427.315 2381.728 2338.397 2293.038 2309.79 2309.66 2264.82 2208.805 2145.54 2084.285 2020.08 1950.9 1891.853 1903.625 1909.77 1896.377 1865.325 1821.715 1791.7 1761.04 1730.188 1689.735 1651.188 1643.287 1634.257 1619.715 1606.33 1592.557 1594.53 1643.733 1626.105 1611.193 1604.065 1589.002 1576.16 1559.213 1536.5 1520.958 1503.132 1485.843 1468.598 1450.845 1434.81 1412.09 1397.435 1376.065 1372.118 1362.6 1348.642 1335.135 1325.915 1314.47 1300.652 1289.662 1274.823 1259.795 1237.953 1235.627 1213.088 1191.82 1172.073 1156.655 1114.475 1119.338 1110.708 1089.422 1064.265 1046.667 1046.075 1049.828 1058.43 1061.105 1062.772 1063.28 1053.45 1045.382 1040.998 1032.953 1026.57 1008.005 1018.765 1013.008 1000.453 990.69 990.725 980.115 972.0025 968.27 963.7425 958.105 954.0275 947.0225 943.7425 932.085 931.0675 924.02 920.2275 906.8925 910.8175 871.035 837.6525 821.0875 813.915 815.87 828.2675 826.2825 824.69 820.6075 820.7075 823.405 817.8325 823.0725 824.125 817.135 808.9125 803.705 784.5375 768.46 769.5375 768.9925 750.0125 733.96 708.6025 691.8325 681.47 681.9775 689.6525 672.9975 666.975 662.115 642.3875 631.0425 620.9325 617.7925 616.91 608.1275 598.9925 601.14 600.7275 593.8275 587.9725 582.6825 575.6375 568.1825 559.8825 554.44 546.8075 539.7125 537.0575 543.2825 552.6475 547.0875 537.3625 533.1975 528.3375 524.8025 522.3225 520.6 513.3325 506.82 499.4075 492.41 489.8625 488.5325 487.3825
1957.115 1990.063 2052.857 2107.762 2101.855 2146.048 2211.258 2215.438 2294.15 2207.315 2280.625 2330.903 2342.718 2651.903 2643.285 2822.815 2745.92 2789.718 3061.458 2976.615 2739.26 2653.675 2647.083 2735.91 2472.535 2438.21 2544.05 2687.962 2692.218 2737.643 2662.002 2558.597 2432.258 2486.51 2568.57 2521.585 2508.695 2466.442 2552.873 2648.772 2643.4 2525.903 2428.81 2344.173 2283.185 2185.15 2212.12 2239.18 2170.012 2036.792 2044.575 1964.142 1909.445 1875.135 1834.57 1844.92 1865.387 1849.007 1844.77 1816.825 1784.468 1723.307 1673.917 1664.21 1647.088 1635.953 1618.41 1605.595 1598.448 1589.13 1602.225 1657.637 1644.145 1626.573 1607.6 1581.152 1568.703 1554.805 1547.373 1513.517 1469.495 1418.35 1388.402 1399.025 1395.213 1428.182 1417.41 1394.83 1380.005 1366.67 1349.272 1339.853 1330.478 1311.79 1302.877 1276.55 1264.453 1242.108 1215.845 1173.912 1168.205 1141.055 1124.243 1103.95 1090.037 1080.38 1071.495 1064.125 1080.873 1102.635 1112.647 1108.118 1098.985 1087.193 1076.743 1066.397 1054.26 1047.623 1044.355 1040.132 1023.763 1012.67 1016.675 1029.59 1005.505 993.6375 985.62 986.325 981.8275 972.9975 969.4675 967.135 960.0075 953.1925 943.315 938.1725 932.7175 932.3125 930.775 926.3275 918.295 899.68 888.315 861.42 836.2025 812.3425 802.525 801.76 802.9175 805.2825 799.815 796.7025 792.6575 793.6775 799.7475 799.0975 796.84 805.615 793.575 772.42 751 746.895 738.505 735.6225 728.5225 718.98 706.835 684.42 666.1125 667.0275 657.61 644.1925 642.235 632.59 632.2475 633.51 629.27 621.3375 623.0625 623.5875 600.0675 587.6625 581.605 578.755 573.635 567.8325 562.845 555.75 549.1275 547.5975 559.99 560.96 554.52 546.1325 541.195 537.805 534.755 527.6225 521.5575 513.4225 506.6475 500.37 489.505 486.62 484.3375 477.75 473.0625
1985.313 2005.345 2139.387 2443.133 2382.302 2200.01 2395.462 2413.93 2338.103 2371.555 2417.183 2643.56 2516.327 2476.43 2610.923 2739.012 2935.875 2984.442 3092.645 3136.915 2849.853 2793.155 2603.913 2786.45 2683.373 2562.02 2481.56 2595.225 2711.215 2892.782 2864.387 2707.355 2530.833 2470.988 2562.695 2781.972 2777.475 2680.633 2724.35 2695.93 2619.22 2522.093 2358.595 2245.825 2168.3 2095.442 2086.25 2112.667 2110.91 1910.85 1883.172 1823.305 1818.088 1812.695 1789.608 1772.098 1760.498 1747.495 1746.77 1755.583 1718.045 1682.66 1642.82 1625.627 1599.46 1594.142 1584.792 1576.165 1602.775 1601.858 1620.2 1660.8 1643.613 1626.725 1606.818 1592.662 1586.458 1552.955 1516.627 1479.805 1424.735 1371.38 1330.318 1305.672 1303.473 1322.91 1357.463 1396.78 1388.177 1345.267 1308.53 1322.36 1302.64 1262.417 1233.233 1205.198 1180.455 1164.13 1148.56 1131.443 1116.07 1103.358 1102.078 1117.045 1134.578 1119.412 1107.547 1131.255 1142.295 1135.05 1126.055 1110.608 1098.73 1086.63 1075.407 1065.87 1057.932 1048.813 1042.657 1038.412 1025.55 1021.693 1022.225 1025.272 1016.403 999.8225 984.22 976.01 974.5 969.4125 966.63 964.6825 959.695 952.1225 942.0375 937.2075 936.11 931.225 922.3275 914.675 931.58 924.945 907.9025 891.4175 874.6125 856.61 823.7775 798.545 789.44 784.8925 781.41 779.6675 778.12 775.7375 770.93 769.27 777.815 784.2975 789.97 786.445 774.7725 766.3425 750.1575 742.19 728.125 714.2 712.6175 704.5575 687.17 676.16 668.6825 665.3425 659.8825 651.7175 648.5275 645.4625 645.5975 639.6975 633.905 614.7175 595.03 589.5175 584.8875 581.225 575.8225 572.285 564.0325 557.5125 559.2625 567.5675 562.9125 557.8375 552.44 546.7575 538.3875 530.5375 524.855 519.8925 515.385 508.0425 502.425 496.6925 499.1625 496 493.42 487.0625 482.94
2043.823 2040.807 2149.518 2322.005 2440.407 2476.2 2339.643 2546.458 2612.745 2607.712 2498.485 2662.625 2757.712 2609.613 2716.89 2769.025 2981.113 2989.145 3099.26 3280.715 2975.153 2665.77 2533.468 2567.988 2565.04 2451.22 2412.343 2459.875 2570.125 2915.427 3115.67 3049.258 2826.992 2553.633 2491.837 2642.512 2957.1 2989.195 2891.228 2776.165 2641.93 2480.887 2395.552 2304.485 2172.965 2017.89 2007.063 1969.988 2005.282 1860.02 1818.743 1749.868 1741.333 1755.725 1748.43 1727.78 1716.1 1696.113 1672.932 1671.45 1660.385 1637.75 1624.97 1604.245 1589.922 1566.305 1558.853 1551.557 1553.147 1558.24 1612.892 1664.443 1635.103 1578.527 1558.688 1575.723 1552.21 1488.517 1449.75 1407.132 1374.218 1351.21 1327.785 1305.765 1283.813 1283.1 1287.802 1321.98 1334.042 1273.002 1238.065 1236.14 1230.233 1205.785 1187.17 1160.01 1141.017 1129.772 1121.188 1123.16 1137.167 1157.162 1187.047 1194.96 1187.723 1176.465 1160.152 1152.823 1141.988 1128.988 1118.375 1108.56 1097.51 1086.655 1075.765 1065.417 1056.215 1047.608 1038.728 1030.132 1020.122 1011.015 1009.255 1017.872 1028.382 1022.835 1003.693 974.81 961.2 950.6875 956.9275 960.6575 961.305 953.2925 931.395 922.94 922.0775 926.4475 915.8725 908.74 912.7625 906.795 901.5175 913.5075 893.065 881.2 869.72 841.65 816.8625 793.805 777.0375 769.6625 765.0175 761.64 759.8125 756.4825 752.7075 750.4575 755.5625 767.6925 773.7025 763.245 752.995 755.4675 748.535 727.05 702.6425 711.75 705.175 694.3375 691.59 683.4725 679.2325 674.0775 668.0425 663.2475 653.285 633.78 616.315 603.7975 599.4325 594.195 589.0725 583.7825 577.1325 571.0325 565.97 568.385 573.67 569.57 562.63 555.99 546.89 539.82 536.4325 531.1875 525.8775 519.5275 514.54 505.22 499.16 497.485 494.335 489.2325 488.6175 484.595 481.1225
2122.542 2079.448 2238.805 2509.438 2840.423 2953.075 2681.813 2651.097 2617.478 2694.88 2588.98 2789.18 2667.205 2581.245 2658.413 2857.495 2814.597 2746.012 3131.083 3287.032 3171.008 2654.143 2529.98 2485.637 2473.265 2431.835 2431.498 2444.31 2467.055 2517.54 2761.98 3043.498 2973.637 2771.39 2565.077 2763.413 3091.302 3134.535 2953.39 2752.26 2579.653 2471.27 2377.765 2332.625 2234.31 2017.34 1921.943 1831.157 1836.63 1796.402 1728.355 1699.507 1696.297 1704.885 1735.927 1690.525 1679.603 1658.185 1638.99 1632.045 1650.065 1638.287 1599.235 1587.08 1569.563 1555.542 1538.995 1535.022 1535.698 1546.797 1583.527 1647.215 1625.037 1549.623 1489.405 1471.95 1467.93 1444.955 1422.948 1393.152 1367.59 1350.175 1341.05 1308.863 1284.853 1266.67 1261.69 1266.44 1264 1247.185 1214.835 1196.512 1186.777 1167.613 1151.105 1145.16 1152.555 1166.67 1188.67 1206.823 1223.81 1221.868 1212.432 1194.72 1186.925 1173.573 1161.76 1150.988 1137.488 1125.343 1113.318 1103.627 1092.535 1081.373 1072.927 1064.677 1054.598 1048.682 1035.595 1031.563 1025.19 1010.025 998.0725 1000.535 1009.225 1018.795 999.0075 987.79 972.33 950.065 938.1325 946.62 952.275 949.555 928.1025 909.19 899.6275 908.685 903.8025 906.1675 887.3025 888.12 873.1 893.8475 900.95 894.0875 886.565 872.685 862.3475 842.7525 810.8475 780 766.605 757.775 754.795 749.3425 744.6525 740.7375 736.175 731.9125 734.77 752.1725 752.7875 736.7475 742.86 733.07 707.95 689.7975 686.3475 682.5575 681.015 676.6425 673.185 672.9625 664.7275 663.285 642.2325 622.515 612.0625 607.635 601.94 595.8025 589.6625 583.225 578.235 574.5425 577.1925 579.815 573.81 564.87 556.3225 551.7625 545.385 541.6675 533.29 532.1325 524.8725 520.06 513.11 507.2725 503.0975 497.18 489.9575 483.8625 474.3575 472.3025 473.77
2155.478 2046.438 2189.673 2425.873 2772.615 2971.03 2891.27 2786.5 2734.022 2661.167 2564.837 2923.21 2673.85 2498.125 2488.92 2556.012 2516.655 2609.375 2831.08 3173.135 3129.698 2682.472 2586.545 2490.813 2466.383 2443.323 2451.195 2467.275 2486.58 2467.73 2477.39 2656.823 3075.845 2982.433 2762.097 2675.248 3031.015 3109.867 3197.83 2961.985 2651.48 2545.165 2463.28 2350.36 2196.145 2036.343 1932.608 1894.547 1829.765 1767.677 1664.098 1655.85 1646.733 1653.057 1699.075 1674.31 1641.762 1623.907 1614.025 1592.743 1612.863 1612.652 1607.907 1588.782 1557.195 1539.53 1520.935 1523.593 1524.81 1530.91 1554.948 1561.218 1559.248 1531.912 1486.113 1446.54 1424.205 1419.068 1404.833 1384.05 1362.922 1344.603 1345.36 1332.623 1307.57 1290.715 1258.927 1238.4 1225.818 1217.895 1198.392 1177.167 1164.598 1169.755 1186.36 1204.892 1221.593 1243.353 1252.42 1248.105 1234.155 1219.912 1207.613 1195.703 1183.27 1170.875 1158.815 1147.635 1133.277 1122.287 1107.42 1098.618 1090.775 1078.843 1066.353 1067.193 1054.395 1042.75 1035.54 1024.81 1020.665 1009.18 999.095 985.955 994.5475 1001.047 998.365 988.1775 986.8175 955.835 944.475 927.015 934.3375 933.9375 933.96 922.005 906.2725 882.6975 880.195 891.12 880.8125 867.285 862.42 857.8675 876.145 874.3675 876.35 876.01 861.2825 859.1975 848.075 823.585 802.35 773.775 758.285 747.1375 740.705 734.135 729.6375 725.2825 720.455 715.465 721.6775 729.9775 721.9675 726.755 722.4825 710.4175 693.095 678.73 665.4075 661.255 657.575 650.0875 643.98 634.7325 625.8925 619.605 613.795 607.1 601.0375 595.63 590.685 588.0375 585.89 589.6675 587.4575 578.4875 568.8 560.3725 553.1575 549.6575 545.4275 539.19 534.2475 529.495 522.84 518.005 510.2425 504.44 495.84 485.985 480.26 474.4975 467.215 460.4475 455.695
2105.873 2040.7 2063.3 2247.545 2306.05 2490.285 2556.238 2429.153 2456.768 2532.323 2532.637 2707.96 2654.945 2397.675 2313.83 2450.607 2596.2 2825.735 3004.742 3264.673 3017.245 2655.635 2536.577 2520.865 2452.018 2483.423 2468.615 2471.75 2500.335 2533.835 2511.522 2515.39 2870.218 3223.115 3066.335 2787.225 3049.377 2886.42 2771.593 2805.508 2600.955 2466.202 2378.268 2308.093 2232.357 2123.445 2029.073 1952.47 1850.115 1716.402 1610.353 1606.493 1602.748 1606.58 1661.975 1644.458 1605.15 1593.718 1574.825 1561.55 1587.613 1575.815 1575.557 1573.755 1556.688 1526.882 1509.975 1516.598 1511.095 1516.57 1512.06 1515.025 1505.455 1485.345 1485.7 1463.135 1431.838 1405.485 1388.343 1367.41 1347.093 1330.402 1330.037 1340.907 1329.483 1301.218 1270.955 1261.465 1234.67 1199.42 1181.978 1183.708 1211.438 1240.858 1266.74 1277.912 1280.92 1269.443 1254.6 1239.945 1227.907 1215.167 1203.218 1191.828 1181.818 1169.547 1157.305 1146.198 1134.975 1121.82 1110.152 1098.75 1090.135 1077.922 1067.807 1060.113 1047.805 1043.86 1032.62 1022.443 1015.838 1007.67 997.075 977.6575 984.355 993.96 1002.135 992.3525 987.38 973.525 967.63 950.96 916.29 922.04 926.5575 928.47 924.45 893.3 877.555 862.11 872.7875 852.3025 841.075 843.44 848.49 860.5625 849.215 861.2025 850.8875 840.6325 850.2275 844.4325 836.855 813.1925 808.5325 793.5075 760.325 737.5075 727.1525 721.82 716.425 710.7625 705.5075 702.3275 698.115 697.2275 698.4725 697.8975 701.075 695.6675 684.22 665.1075 650.225 643.635 636.77 630.6875 624.8775 619.135 613.2275 608.2675 604.7025 609.52 608.71 604.87 601.1875 593.55 585.2775 574.6125 565.4 557.015 554.1625 545.03 533.9375 529.2225 525.275 519.7225 513.0575 508.52 507.3275 504.625 487.145 489.4 488.0425 485.0325 478.925 472.0925 470.645
2136.512 2052.302 2014.297 2001.132 2085.48 2143.515 2209.5 2183.427 2286.837 2509.462 2713.417 2635.83 2397.782 2293.41 2360.317 2503.998 2726.462 2981.938 3256.235 3371.11 3062.35 2637.99 2505.327 2488.538 2493.827 2507.74 2480.232 2494.337 2509.558 2541.802 2547.235 2558.663 2673.982 3355.688 3273.563 2892.123 2912.278 2781.615 2947.53 2803.808 2683.272 2516.03 2377.232 2225.37 2188.29 2096.127 2043.665 1970.642 1706.985 1635.74 1567.127 1578.667 1570.375 1578.945 1617.552 1624.43 1596.723 1561.662 1548.22 1531.925 1547.767 1554.912 1537.96 1534.915 1520.205 1511.968 1500.675 1523.932 1511.735 1518.343 1503.593 1498.305 1492.435 1466.01 1456.115 1438.248 1417.23 1399.402 1390.583 1380.998 1376.297 1353.055 1314.63 1320.34 1335.845 1293.285 1276.573 1248.81 1213.3 1189.887 1202.01 1240.583 1272.022 1306.328 1316.598 1302.953 1288.218 1271.62 1255.895 1242.323 1227.615 1212.355 1198.443 1187.02 1176.593 1166.22 1154.145 1142.485 1132.632 1122.975 1112.323 1101.155 1088.858 1076.845 1065.52 1054.685 1047.392 1036.078 1028.267 1016.343 1013.77 1006.008 995.1375 983.7925 982.3825 992.82 982.9475 986.05 992.755 972.2975 971.2175 974.72 944.1575 900.6425 913.9425 932.3275 930.1675 902.9775 881.32 862.155 837.8725 844.8675 821.4325 822.645 832.555 837.385 835.6425 837.8875 839.4375 834.255 824.0175 821.8775 817.7175 806.8525 799.125 792.7475 791.4175 778.31 744.8375 734.6725 725.1 714.01 706.54 699.93 693.6575 688.0175 682.605 676.5025 671.4875 665.98 660.4175 654.135 648.0775 641.7725 636.06 631.095 625.9675 620.9925 618.6675 621.8925 625.91 621.18 611.8325 605.55 598.5425 588.975 579.78 570.2775 563.6375 555.505 550.3625 546.625 541.395 537.305 531.6175 527.175 519.99 508.9025 503.365 493.885 497.905 496.17 489.1775 487.7425 483.3775 475.5675 470.955
2107.367 2059.095 2001.26 1965.743 2022.297 2043.725 2071.01 2050.563 2140.02 2264.982 2552.475 2336.66 2189.975 2142.768 2303.478 2447.317 2667.925 2945.69 3232.215 3261.093 2922.87 2572.61 2529.32 2506.248 2473.2 2487.617 2512.607 2524.673 2535.845 2558.183 2590.917 2635.238 2675.64 3155.56 3413.655 3042.645 2836.06 3088.04 3211.522 3293.355 2975.645 2706.067 2529.525 2684.02 2611.795 2312.79 2319.738 2117.995 1872.595 1599.172 1540.895 1535.657 1533.387 1554.015 1583.382 1573.257 1568.43 1531.993 1523.925 1506.9 1508.615 1511.698 1507.963 1503.882 1489.675 1483.527 1481.468 1511.74 1520.012 1517.78 1504.147 1497.13 1505.757 1496.22 1473.045 1452.045 1449.422 1434.147 1417.333 1399.745 1384.983 1364.655 1337.427 1302.147 1284.568 1285.09 1263.995 1230.21 1202.892 1212.113 1254.762 1292.605 1333.182 1341.39 1325.193 1305.012 1287.542 1272.17 1255.907 1241.568 1227.09 1214.25 1198.963 1184.618 1171.998 1160.04 1148.095 1136.1 1126.05 1117.198 1106.198 1095.463 1084.01 1071.765 1060.368 1049.82 1041.24 1032.302 1019.7 1007.153 1000.667 1000.148 994.055 982.735 969.7325 978.15 977.125 962.2475 982.0475 963.495 973.3825 957.5625 958.9225 912.605 896.1825 921.46 925.105 915.2625 878.7425 854.9125 835.1775 818.205 807.14 797.615 807.545 820.64 820.2975 811.785 819.795 809.995 794.7925 805.3875 811.5925 806.7975 811.925 804.83 783.4225 769.9525 758.13 764.95 749.7575 735.125 723.1325 712.09 703.995 698.4675 690.22 681.25 675.0275 668.565 662.4225 656.0975 651.015 646.2625 641.0375 637.2925 634.5475 632.7425 632.17 627.7625 622.8175 619.365 609.4875 602.8825 591.6975 583.2025 574.51 570.0425 559.6 556.2475 553.2225 546.5875 540.3275 537.05 530.7475 523.22 518.6925 516.0725 512.665 508.645 501.63 496.5925 492.7325 490.205 483.9975 477.39 467.2025
2095.57 2004.012 1945.887 1971.358 2008.802 1998.475 2068.455 2138.665 2139.86 2258.817 2469.255 2368.28 2205.24 2232.66 2130.542 2302.97 2628.755 2934.095 3137.673 3021.383 2718.24 2585.272 2527.992 2499.865 2497.883 2485.157 2511.025 2544.607 2576.552 2600.248 2653.05 2666.653 2753.817 2894.278 3348.607 3075.43 3003.72 3135.538 3441.36 3281.512 2955.935 2734.742 2800.248 2658.802 2469.248 2310.22 2147.245 2122.955 1976.185 1719.682 1554.188 1521.588 1500.238 1511.823 1538.205 1530.063 1533.603 1508.792 1497.055 1484.213 1496.42 1497.09 1473.813 1468.19 1472.3 1460.703 1484.927 1491.085 1491.068 1513.74 1499.685 1492.76 1496.228 1510.282 1482.767 1458.363 1457.845 1427.098 1414.26 1410.718 1403.787 1376.248 1351.92 1328.938 1285.547 1258.795 1241.507 1219.738 1213.05 1258.265 1290.998 1315.665 1358.555 1344.833 1328.085 1309.42 1293.282 1278.27 1264.165 1246.912 1230.58 1214.24 1200.03 1185.56 1169.218 1154.795 1143.815 1133.035 1122.875 1112.657 1101.848 1091.89 1080.47 1069.49 1056.432 1044.748 1035.157 1023.903 1011.482 1004.112 990.94 981.67 983.0975 977.4675 969.99 961.5225 975.785 953.19 955.5425 972.3325 942.0925 950.6725 940.1575 919.63 883.5625 900.385 908.7575 904.9725 897.0975 879.7275 854.3575 850.45 834.74 811.8 783.4975 797.545 799.8275 796.3275 803.8225 791.785 788.7125 778.285 782.7325 782.325 787.345 794.855 790.04 780.6125 772.555 763.9025 758.0725 752.425 735.4975 718.11 708.8325 700.8075 695.725 688.67 681.42 675.2225 671.465 666.365 662.4325 657.735 651.73 646.3275 640 632.545 626.465 623.4975 620.4825 609.64 602.7525 595.2925 588.71 583.905 578.41 570.9475 563.615 556.8375 549.7425 544.53 539.925 534.04 531.2875 530.0625 524.95 515.42 510.745 504.0825 498.75 494.2 490.255 488.8425 481.1825 471.47 467.96
1966.63 1920.91 1925.348 1937.743 1940.483 2012.927 2100.475 2080.242 2003.065 2053.77 2196.575 2236.095 2209.587 2061.083 2065.857 2111.387 2277.885 2667.19 3006.857 3119.69 2757.218 2650.745 2620.435 2596.755 2516.308 2508.198 2541.438 2576.705 2575.768 2605.405 2755.29 2824.353 2790.59 2939.9 3134.488 3302.127 3291.252 3124.643 3266.272 3470.923 3373.448 3218.105 3103.302 2948.163 2779.778 2464.085 2193.887 1931.71 1840.512 1772.007 1583.17 1525.88 1497.708 1482.132 1493.505 1495.037 1490.127 1486.537 1472.568 1462.988 1465.172 1470.248 1461.525 1443.505 1446.175 1482.012 1483.243 1452.588 1437.877 1458.792 1468.953 1493.708 1486.33 1471.22 1480.21 1460.402 1449.17 1424.647 1409.12 1411.645 1397.675 1376.017 1357.443 1316.63 1298.095 1265.975 1229.652 1220.525 1247.12 1287.598 1337.132 1378.833 1369.515 1347.345 1329.483 1312.645 1295.53 1278.007 1261.527 1246.647 1232.3 1217.63 1201.025 1183.618 1170.157 1160.688 1146.18 1134.262 1122.532 1111.935 1104.895 1088.735 1081.603 1062.385 1052.507 1042.4 1031.36 1020.53 1016.302 1006.487 996.1725 988.76 993.405 975.685 953.8125 934.665 966.0925 948.9625 938.785 943.5725 936.3125 934.9775 919.6125 916.5475 903.7275 872.67 887.1275 890.8825 871.895 881.5125 875.4375 857.02 836.94 820.31 791.7825 767.8475 775.1125 781.7375 777.7075 780.88 774.9925 757.915 768.125 764.785 763.545 762.9775 761.18 759.26 763.3675 762.2925 758.055 743.0725 735.2975 723.3 717.24 707.6875 695.5775 688.69 684.7575 680.3625 677.1875 674.075 669.575 663.66 653.82 645.12 637.5775 629.3375 624.395 618.3875 614.4325 603.675 593.605 586.7975 580.17 577.3975 572.315 564.725 560.115 555.945 549.0525 543.815 538.545 535.1425 531.445 525.155 519.5475 511.595 506.1375 500.81 498.6725 496.845 491.2 481.98 475.65 477.725 477.485
1906.162 1941.83 1961.6 2064.583 2015.235 2005.925 1977.682 1969.068 1985.853 2001.83 2116.545 2120.742 2043.055 2066.295 2103.185 2249.843 2140.305 2572.373 2991.76 3078.603 2838.365 2680.938 2650.442 2601.085 2567.48 2607.907 2672.085 2699.76 2619.7 2628.36 2743.877 3045.373 2937.005 3041.03 3309.482 3365.99 3294.752 3284.577 3374.605 3644.627 3602.468 3216.397 2778.7 2489.645 2437.192 2554.32 2215.198 2014.54 1694.267 1738.94 1591.97 1534.738 1502.595 1492.81 1467.228 1458.493 1455.407 1446.75 1443.795 1440.402 1433.01 1441.598 1430.03 1423.618 1453.99 1467.907 1462.953 1427.042 1431.18 1429.845 1418.625 1435.185 1442.787 1478.035 1440.065 1452.335 1443.542 1424.637 1402.547 1404.368 1396.677 1375.825 1336.728 1306.277 1279.39 1240.04 1231.807 1245.662 1281.98 1315.017 1363.307 1388.412 1365.265 1346.642 1322.605 1305.672 1290.395 1275.965 1260.608 1244.66 1228.238 1210.765 1194.875 1180.135 1166.865 1162.15 1151.45 1143.3 1129.877 1125.657 1110.703 1095.147 1085.075 1062.82 1044.882 1031.085 1022.393 1008.508 1002.503 1000.112 991.0525 978.545 980.0175 993.9525 988.0475 976.91 940.4475 924.3075 922.985 931.845 936.3525 906.43 902.58 893.05 900.36 877.425 853.605 880.22 852.44 856.7875 847.67 856.32 842.9975 820.9425 805.4675 788.8225 759.9025 753.5575 758.6025 763.53 758.8875 740.8375 751.5 740.4675 749.665 738.3975 741.3475 732.2775 751.225 756.5225 742.33 747.82 742.58 723.85 715.5925 708.7875 705.4175 691.665 684.855 681.4325 679.2675 676.45 672.435 669.8775 662.7175 652.5675 641.1775 628.91 615.75 612.3875 607.0275 599.295 590.7325 577.15 564.6675 566.6075 565.8675 560.8075 555.865 550.965 544.905 540.3325 537.5075 534.5475 527.9325 522.8925 517.7425 512.235 507.9525 501.6525 500.1075 496.9225 489.0625 482.34 485.77 492.65 488.6725
2052.955 2176.327 2203.84 2272.528 2250.607 2108.55 2021.328 2053.665 2131.645 2063.37 2182.097 2158.232 2077.133 2083.677 2217.167 2274.995 2100.327 2479.857 2899.627 3015.055 3006.762 2721.008 2638.8 2677.435 2681.538 2781.1 3077.933 2877.05 2761.525 2685.938 2702.555 2763.883 2918.333 3219.498 3443.925 3195.778 3324.633 3431.738 3459.567 3176.623 2975.942 2862.698 2620.708 2434.758 2431.765 2204.367 2197.643 1946.325 1714.405 1589.137 1563.502 1526.677 1514.407 1519.637 1502.818 1491.233 1469.785 1460.665 1441.318 1419.963 1412.193 1407.97 1405.905 1425.922 1437.978 1425.838 1431.498 1408.505 1418.833 1423.463 1388.265 1384.55 1384.307 1425.295 1442.078 1402.35 1389.333 1418.387 1419.49 1388.397 1373.215 1341.695 1310.392 1274.578 1247.432 1246.762 1266.382 1279.085 1280.99 1302.33 1347.453 1373.66 1355.48 1351.005 1326.31 1306.417 1290.807 1274.083 1256.307 1236 1217.297 1204.11 1190.563 1178.09 1167.782 1156.167 1145.818 1143.777 1136.47 1120.195 1105.022 1090.91 1082.752 1073.23 1057.995 1047.083 1038.073 1025.42 1012.525 1007.872 1001.862 975.0425 962 955.1475 940.535 934 928.51 926.5125 900.935 893.29 914.1425 929.19 900.1025 872.5475 883.0375 886.785 844.9275 846.0475 844.8125 834.12 828.61 836.3025 825.005 825.11 821.3275 808.1225 788.3475 757.4525 747.2625 741.2875 736.49 739.8075 724.28 719.255 727.18 725.55 727.5725 714.025 729.2775 729.3025 725.7875 729.58 735.715 732.6275 720.4625 709.3675 702.4725 696.93 685.8425 680.0575 676.45 675.36 670.265 668.595 666.6175 660.47 642.575 632.7825 623.1025 611.125 598.66 587.9775 582.6 572.975 571.8375 556.895 551.18 544.655 545.4575 547.61 542.185 536.2925 530.6325 525.5 522.88 516.98 513.9225 509.1925 503.7025 496.6 496.5675 493.295 486.2625 485.295 484.045 481.6825 485.0275
2033.04 2115.61 2103.245 2130.965 2287.238 2313.458 2245.538 2218.405 2334.603 2300.427 2139.558 2112.917 2102.923 2156.097 2206.573 2142.232 2122.452 2610.355 2891.468 2969.593 2853.955 2647.17 2656.708 2744.99 2913.295 3061 3210.15 3210.8 2908.73 2978.905 2916.893 2919.865 2983.64 3313.117 3412.455 2971.837 3262.232 3554.415 3340.285 3113.988 2695.945 2545.59 2378.288 2406.173 2529.075 2492.56 2153.465 1975.78 1718.225 1605.2 1545.632 1526.37 1514.855 1498.978 1481.5 1504.23 1499.635 1463.532 1440.845 1419.06 1422.775 1423.61 1403.14 1395.818 1396.12 1402.723 1416.04 1389.63 1402.568 1390.757 1370.873 1347.307 1343.132 1354.392 1382.147 1417.302 1380.385 1352.057 1369.392 1352.785 1318.417 1292.675 1269.703 1259.368 1268.205 1297.72 1307.86 1298.027 1317.825 1321.295 1338.865 1341.375 1333.825 1314.233 1307.542 1287.688 1271.563 1258.335 1238.723 1221.265 1210.932 1201.095 1187.145 1176.818 1171.73 1159.968 1150.835 1140.67 1129.445 1119.955 1106.195 1095.343 1090.27 1076.865 1065.407 1050.415 1042.205 1031.468 1017.91 1007.67 1027.723 1027.887 1017.465 1012.953 998.1475 974.7825 948.7975 912.415 898.8375 879.2975 860.9975 893.565 894.295 893.5 853.515 864.045 871.33 842.7325 818.4075 808.9075 809.4675 825.8775 820.105 798.4925 804.845 786.7775 783.275 767.4975 735.205 752.1975 733.195 715.6475 719.4325 701.5875 706.2875 714.4225 703.13 699.3875 702.3725 704.3725 705.6375 701.825 717.9025 718.3375 720.81 716.24 702.63 695.9325 688.6175 681.6575 672.8925 667.74 663.3825 667.835 663.07 653.6875 643.9975 641.6875 633.97 619.6125 600.33 592.0775 587.045 585.8 582.0275 576.1 563.695 554.915 541.7475 529.6 528.2175 528.12 527.62 523.1375 516.2225 510.8125 506.9975 504.86 499.8375 495.0475 493.205 486.015 480.0125 477.7875 473.3125 470.8575 469.5125
2084.843 2231.32 2172.755 2247.475 2100.067 2188.52 2236.448 2334.853 2340.458 2246.022 2252.667 2221.225 2270.45 2280.472 2419.81 2274.76 2237.475 2733.778 2925.188 2938.683 2770.762 2552.25 2495.087 2692.345 2924.83 3088.802 3247.075 3073.37 3059.59 3110.945 3199.98 2836.038 2897.46 3113.385 3220.205 2818.313 2956.433 3309.94 3508.313 3174.972 2803.14 2707.49 2647.1 2655.448 2521.397 2441.395 2038.36 1967.828 1765.838 1626.618 1563.968 1543.525 1528.902 1504.235 1479.375 1463.912 1443.005 1439.208 1435.073 1439.037 1446.833 1444.63 1415.397 1423.535 1413.905 1383.627 1377.72 1371.935 1367.698 1358.988 1351.05 1355.618 1356.585 1339.718 1338.448 1366.733 1366.073 1346.85 1319.78 1305.215 1283.873 1274.1 1274.943 1296.458 1317.94 1341.557 1351.7 1320.402 1348.512 1362.39 1351.958 1345.453 1336.307 1330.315 1308.2 1293.927 1277.165 1255.825 1229.137 1215.113 1204.498 1197.53 1186.42 1183.39 1176.525 1164.993 1159.757 1146.042 1132.485 1115.98 1109.573 1098.517 1088.912 1082.118 1067.233 1058.045 1050.382 1039.078 1029.177 1011.73 1000.85 1016.13 1018.943 1009.588 995.3125 987.5475 973.0275 958.19 938.185 911.235 880.825 859.4775 847.735 865.735 861.05 835.96 847.4075 846.185 838.355 827.7825 793.0675 787.715 800.9525 790.865 787.865 769.26 761.745 757.2325 736.98 728.5825 727.22 713.315 694.7125 684.575 682.965 686.4 685.1575 684.4325 681.0625 684.035 685.6375 681.7025 694.45 708.15 709.835 701.8825 698.29 700.605 689.2875 687.06 678.46 676.71 660.1475 651.585 656.6375 651.605 642.195 630.145 623.4775 613.06 602.96 603.0875 602.5475 600.815 597.1825 586.5475 576.8275 566.2275 548.4775 541.535 532.96 516.8225 518.985 517.9675 513.6075 508.0425 501.9325 495.8375 491.48 485.62 485.995 482.0475 475.725 468.0075 465.255 459.7075 462.23
2175.302 2355.278 2405.37 2363.38 2190.552 2446.518 2359.23 2468.23 2568.665 2488.958 2487.048 2452.813 2531.95 2376.255 2432.232 2297.948 2370.778 2672.073 2825.08 2876.43 2785.087 2622.647 2532.595 2441.63 2625.107 2683.41 2845.57 2923.13 2773.205 2757.558 2821.772 2789.827 3144.88 3167.145 3097.895 2734.9 2782.47 3042.163 3292.268 3560.083 3538.913 3119.535 2893.788 2576.485 2475.58 2220.282 1925.975 1819.93 1719.685 1596.56 1553.177 1533.11 1529.027 1530.42 1506.188 1466.29 1452.527 1457.868 1476.31 1472.57 1461.703 1454.917 1433.875 1460.545 1459.55 1422.775 1399.552 1386.088 1383.868 1375.41 1373.755 1374.53 1366.78 1353.252 1341.575 1327.055 1322.182 1307.53 1298.045 1292.262 1288.542 1301.637 1316.478 1319.708 1344.38 1363.21 1382.568 1345.775 1362.375 1379.323 1372.938 1356.693 1338.04 1326.412 1315.108 1294.363 1274.275 1255.14 1237.945 1228.282 1215.68 1206.205 1192.213 1191.19 1175.525 1162.973 1149.698 1137.14 1129.475 1120.233 1112.5 1097.61 1089.23 1078.68 1068.175 1056.515 1048.047 1039.375 1031.06 1019.625 1006.94 992.9075 1009.275 992.1775 989.1375 987.225 972.54 965.06 945.3725 918.4375 902.185 879.9225 865.9175 838.0425 827.7725 830.6675 817.49 817.385 819.5475 822.035 807.0825 785.19 770.1 772.205 759.0625 754.7525 736.71 728.1725 714.7575 699.41 697.4275 695.625 697.4475 693.035 681.37 672.055 663.065 657.78 650.8475 656.46 662.6075 663.425 677.2375 685.69 683.94 691.11 684.145 687.99 688.6325 683.2525 677.1875 673.945 663.5475 652.5675 641.165 647.8525 636.6475 633.7175 624.255 618.9775 612.9225 613.9975 607.0425 602.0075 603.135 593.7 585.5575 571.87 556.4175 556.025 545.2325 535.7625 516.2325 505.57 507.5875 507.1775 499.56 495.7225 489.245 483.7525 475.3025 471.625 463.565 454.6 455.23 456.145 447.7475
2203.275 2419.74 2593.627 2392.3 2449.64 2618.815 2718.76 2464.795 2753.847 2894.97 2675.31 2581.323 2523.96 2392.133 2407.468 2722.433 2526.387 2575.698 2892.195 3037.805 2924.038 2775.542 2625.468 2402.355 2363.867 2448.89 2615.978 2860.805 2667.813 2892.7 2946.613 2772.302 2914.972 2828.593 2746.135 2632.04 2707.72 3044.43 3356.185 3572.222 3324.105 2982.255 2584.13 2522.925 2299.942 2105.857 1883.108 1722.375 1645.705 1598.813 1559.47 1555.83 1541.713 1508.412 1475.708 1461.125 1474.555 1493.775 1520.06 1478.483 1469.735 1454.412 1457.517 1472.38 1457.075 1431.507 1412.15 1417.123 1423.755 1418.902 1389.282 1388.507 1383.792 1362.625 1350.055 1338.118 1325.645 1317.22 1319.57 1308.563 1300.32 1340.245 1346.313 1329.145 1345.745 1358.775 1381.925 1387.147 1394.537 1394.363 1377.705 1359.81 1339.94 1321.252 1306.873 1287.8 1271.7 1259.042 1246.55 1232.685 1219.853 1205.613 1194.64 1186.785 1173.94 1161.078 1152.85 1139.285 1129.795 1119.6 1108.108 1097.14 1090.363 1076.785 1062.875 1057.123 1048.57 1040.358 1029.48 1017.615 1003.935 988.505 983.2275 997.6825 967.27 960.425 939.5025 936.2525 923.6125 913.5325 895.89 881.75 870.0425 854.94 833.765 802.62 794.77 786.27 783.6025 798.875 788.785 777.275 750.2 746.98 742.07 736.955 736.6875 733.675 729.12 734.2325 728.695 729.055 724.505 730.9175 715.12 711.9725 704.895 692.545 678.9075 664.465 640.8675 634.3825 654.09 665.5075 666.9375 669.38 671.015 658.595 657.0275 668.8725 669.7025 660.1125 654.51 649.925 637.4325 632.145 616.5575 617.815 615.96 614.165 613.575 603.8475 595.3075 578.1875 579.81 577.0525 583.1325 577.375 565.62 551 541.19 529.7525 518.1475 512.1325 496.2325 490.9125 484.0075 479.86 476.86 472.52 472.3375 470.0825 468.5675 462.6775 447.9325 436.5675 429.09
2420.07 2669.625 2839.847 2694.44 2554.165 2867.833 2997.192 2708.16 2576.68 2782.395 2958.962 2828.36 2569.055 2417.305 2394.383 2669.708 2887.51 2628.83 2791.75 3112.202 3094.33 2857.333 2602.863 2366.613 2309.992 2415.552 2430.14 2575.575 2756.475 2944.505 3123.92 2964.117 2755.663 2614.28 2569.782 2539.375 2649.893 3149.708 3402.955 3597.05 3303.86 3210.028 2798.962 2543.965 2368.407 2279.465 2046.63 1783.28 1592.007 1547.915 1530.797 1519.993 1501.998 1484.42 1478.895 1485.44 1479.417 1514.868 1521.015 1483.415 1475.892 1480.385 1488.515 1471.728 1446.932 1435.017 1437.595 1441.583 1436.657 1417.343 1407.655 1402.66 1400.45 1392.955 1375.22 1368.502 1336.36 1341.103 1363.762 1335.85 1311.515 1339.285 1368.412 1357.453 1347.307 1364.267 1387.527 1418.988 1423.243 1400.035 1374.855 1352.56 1335.62 1320.958 1307.205 1294.032 1282.182 1266.635 1249.177 1234.22 1222.46 1210.135 1199.502 1187.547 1174.3 1163.925 1154.302 1141.22 1129.267 1116.708 1106.103 1096.48 1084.787 1069.828 1061.277 1054.125 1042.613 1035.228 1024.733 1013.013 1004.335 982.3075 966.2575 954.39 953.825 934.5075 915.9825 896.7475 891.0675 872.9675 854.155 847.0975 833.0625 823.4075 823.7125 835.745 842.6075 826.27 801.0975 772.15 767.045 768.025 777.4475 774.6175 770.8925 769.0475 771.675 756.3875 755.3075 758.0675 752.1575 745.0125 733.72 721.2225 715.675 702.6875 688.6775 675.4775 661.215 658.89 665.7325 644.1 623.99 641.44 646.73 652.145 648.83 655.7 639.7875 635.05 650.3 644.2225 634.2325 639.1725 632.345 615.54 599.3825 592 596.93 591.55 593.6075 583.0825 577.71 569.9675 559.32 562.6025 557.7675 560.9875 563.5525 558.1125 547.8025 539.46 535.3225 530.745 514.6725 503.96 501.495 494.08 483.1475 471.9025 459.3225 459.605 455.215 455.1175 449.5 462.9125 457.33
2670.153 2827.042 3035.042 2681.265 2819.188 3097.298 3117.313 3044.4 2903.423 3189.21 3250.94 3165.11 2783.708 2541.16 2491.58 2534.575 2866.115 2846.25 2761.998 2894.29 2958.268 2966.035 2621.363 2543.505 2345.535 2465.732 2361.863 2412.397 2668.08 2792.192 2777.772 2680.567 2638.653 2519.472 2475.968 2563.92 2685.403 2778.495 3060.285 3250.522 3449.805 3084.708 2818.357 2650.867 2494.925 2324.255 2006.245 1694.828 1608.825 1550.94 1533.938 1527.525 1500.23 1505.412 1519.195 1517.073 1487.375 1525.922 1534.015 1496.055 1496.208 1507.02 1511.59 1476.03 1456.75 1451.073 1464.838 1462.93 1441.078 1442.807 1433.77 1416.8 1414.027 1421.86 1391.777 1398.877 1355.505 1353.995 1371.693 1340.555 1321.877 1332.935 1372.19 1390.575 1377.152 1384.078 1409.11 1435.073 1415.762 1397.307 1377.147 1363.715 1345.752 1329.02 1317.438 1297.833 1283.45 1270.55 1256.215 1239.56 1223.988 1209.432 1198.975 1183.995 1168.377 1154.382 1140.848 1132.44 1117.358 1104.54 1092.97 1091.833 1077.55 1059.54 1045.772 1043.1 1035.9 1020.482 1014.625 1006.935 993.6125 975.8825 967.1075 953.86 915.5525 890.9825 882.34 872.515 865.3025 869.7225 872.415 872.8725 868.1 869.65 870.255 851.8475 834.4425 811.405 804.725 805.935 812.645 806.1475 802.575 797.78 802.0625 796.6025 790.3125 775.9525 758.2225 737.8875 725.8325 716.0275 707.5175 697.0225 692.6125 681.24 674.5325 672.7075 668.15 647.725 634.2075 628.3775 624.005 614.52 622.0175 629.0225 631.7475 633.725 630.0325 612.68 621.2275 611.5175 610.1625 599.075 597.7025 594.78 590.735 575.6675 575.1475 571.2975 572.8875 562.7925 557.0625 547.4875 543.765 548.5625 542.9975 536.6275 540.0725 544.285 542.015 542.1875 543.13 531.8375 521.61 509.155 502.385 491.0975 480.6325 476.7 475.905 467.86 464.9775 469.555 458.84 455.75 448.995
2604.605 2659.78 2641.843 2599.593 2681.563 2763.847 2788.887 3084.183 3233.012 3221.022 3430.427 3253.32 2945.775 2762.985 2630.32 2546.097 2568.248 2585.167 2760.968 2725.377 2754.188 2932.785 2982.725 2600.7 2292.407 2302.423 2302.71 2308.75 2365.492 2474.885 2514.677 2493.052 2711.087 2531.498 2479.262 2642.377 2827.23 3037.008 3054.315 3420.383 3563.633 3286.805 2918.91 2651.117 2520.56 2271.09 2008.025 1667.703 1589.57 1595.713 1568.095 1529.505 1543.292 1539.21 1541.265 1522.887 1499.47 1537.468 1535.72 1510.105 1517.813 1535.088 1527.792 1484.713 1478.085 1471.975 1494.877 1480.655 1462.42 1479.068 1452.012 1437.068 1427.785 1449.363 1424.41 1414.022 1379.267 1361.63 1377.525 1355.307 1335.287 1334.873 1356.902 1375.667 1402.88 1420.955 1425.162 1431.985 1412.797 1400.07 1393.58 1369.968 1349.55 1339.07 1324.585 1311.257 1293.897 1277.21 1260.688 1245.54 1232.32 1226.175 1203.77 1189.318 1173.895 1161.21 1125.89 1113.547 1112.113 1098.14 1078.647 1053.698 1042.593 1038.32 1027.175 1013.607 1011.898 999.29 991.6225 983.9775 974.295 957.4625 930.1125 907.0775 916.4675 925.8625 909.7375 911.3575 909.8475 914.29 910.2025 903.125 892.7725 878.1875 851.6825 833.785 833.725 835.3725 842.715 833.33 836.825 830.6 817.2675 803.4025 780.1575 766.395 759.4975 751.615 734.0325 735.4875 737.8575 733.4375 728.565 720.7125 710.0725 694.005 682.1 670.185 655.9975 649.2525 665.5225 661.19 660.1725 651.6275 631.6125 616.55 604.7275 604.6525 597.9225 590.3275 583.99 580.775 577.78 576.575 570.8075 564.9925 560.945 554.355 549.11 544.295 540.6775 534.58 529.255 525.9975 519.6525 515.9025 511.3625 509.1 509.3225 518.14 521.445 516.875 525.805 523.745 519.9075 505.3275 497.295 491.065 494.87 488.1075 484.7 480.455 475.545 455.76 447.26 439.095 434.295
2423.653 2424.675 2479.198 2516.448 2721.587 3050.74 3067.24 2898.865 3121.685 3419.025 3289.925 3297.215 3105.21 2891.728 2728.603 2668.663 2675.847 2596.933 2757.198 2717.593 2828.472 2717.827 2686.782 2614.785 2415.585 2327.215 2352.095 2383.407 2412.415 2429.94 2454.71 2750.238 2799.417 2591.305 2633.407 2681.595 2755.135 3008.343 3255.663 3479.032 3542.343 3131.288 2799.57 2569.48 2385.135 2103.417 1912.427 1649.392 1601.958 1592.887 1588.19 1568.863 1584.2 1571.993 1549.46 1528.012 1510.115 1554.475 1536.407 1541.762 1542.772 1549.965 1538.142 1506.59 1503.882 1500.152 1516.813 1487.432 1487.762 1499.615 1462.632 1448.733 1440.113 1462.297 1455.907 1428.512 1419.637 1387.037 1380.35 1365.382 1365.32 1349.257 1359.065 1383.137 1414.233 1450.792 1458.333 1445.328 1431.35 1411.395 1392.338 1375.45 1359.17 1344.713 1332.85 1320.545 1302.968 1286.593 1269.785 1255.61 1244.18 1228.675 1210.67 1193.16 1178.92 1160.775 1173.855 1164.838 1158.36 1141.848 1117.323 1086.71 1040.505 1012.893 1006.955 997.3675 992.435 979.205 974 963.995 949.95 931.66 920.76 947.4525 974.79 950.2175 935.4775 951.375 944.4625 928.885 916.83 904.44 886.6775 868.8625 862.775 876.53 872.545 866.8225 872.3575 852.795 827.53 812.005 786.41 778.435 774.9275 783.9225 775.595 765.0125 765.1275 758.97 745.6225 736.4075 719.535 696.5325 694.2875 692.2075 694 687.705 686.9725 686.7075 685.7 672.96 650.305 639.935 630.69 620.6875 610.4725 617.615 623.11 616.43 615.3425 619.17 611.735 618.1925 619.08 613.755 603.2375 586.005 583.665 575.905 577.95 563.79 569.64 560.35 550.4 540.9 534.3125 524.31 509.4575 496.1375 489.165 487.69 486.84 484.15 487.7175 499.825 503.2 505.01 501.01 497.455 494.4925 484.715 466.9325 456.58 465.7025 465.9075 464.14
2259.968 2497.823 2903.327 2882.93 2809.038 3134.837 3325.167 3213.913 3180.173 3448.458 3349.435 3242.74 2998.333 2749.633 2762.012 2901.438 2885.748 2476.025 2357.94 2726.36 2765.85 2455.11 2261.87 2630.683 2616.377 2341.583 2507.157 2657.438 2499.427 2481.155 2604.195 2719.837 2959.058 2922.173 2774.907 2617.375 2603.722 2731.61 3174.438 3487.637 3133.042 2944.677 2610.415 2551.955 2461.91 2334.698 2230.12 1826.708 1666.147 1683.297 1625.598 1599.998 1613.983 1574.198 1583.405 1547.613 1524.365 1554.52 1545.282 1574.45 1563.598 1568.8 1569.48 1537.177 1531.82 1536.748 1524.078 1511.25 1516.235 1503.995 1470.41 1464.198 1453.637 1469.693 1487.85 1454.62 1456.77 1412.723 1397.568 1392.95 1379.025 1365.75 1373.515 1387.858 1414.865 1434.098 1474.11 1462.13 1433.797 1414.983 1400.718 1383.67 1366.512 1351.882 1339.667 1326.33 1311.45 1294.975 1282.012 1268.68 1253.005 1234.92 1218.89 1199.848 1189.802 1196.985 1200.635 1174.475 1164.105 1132.94 1101.438 1050.772 1044.39 1065.478 1071.313 1063.313 1048.975 1030.73 1025.993 1003.01 962.345 947.8325 958.5 975.155 987.8525 962.1475 978.755 969.1 957.895 950.6125 951.125 924.895 901.055 893.52 893.8675 899.45 883.6025 878.3325 855.8475 839.0075 814.8875 797.9175 813.64 814.6925 806.875 787.5025 767.7675 753.83 744.43 733.685 730.3925 724.04 716.425 726.425 729.265 727.81 723.305 717.0425 706.155 691.71 675.1975 663.2525 639.29 642.915 636.8425 640.49 646.1375 649.62 648.5125 641.92 638.525 644.9475 638.565 633.935 617.32 620.2575 628.4475 618.56 599.225 599.9125 598.5625 595.965 588.565 583.65 575.0575 565.32 557.34 549.9325 541.25 533.1025 516.995 503.2775 494.1775 485.745 471.34 467.0225 483.4675 492.0725 506.6125 498.0325 487.38 478.2 472.8525 479.1125 481.115 482.46 474.875
2632.785 2520.06 2814.39 3200.758 3229.827 3205.813 3299.173 3312.202 3378.532 3428.403 3198.38 2885.617 2693.47 2484.883 2371.76 2477.603 2409.43 2153.04 2180.087 2449.228 2376.052 2293.9 2353.775 2557.317 2764.725 2470.78 2468.26 2952.35 2745.327 2600.325 2633.555 2848.55 2956.84 3107.885 3014.107 2779.93 2732.94 2806.837 3198.127 3361.335 3054.12 2851.16 2693.635 2602.423 2602.583 2422.823 2239.452 1937.927 1796.485 1732.335 1670.07 1637.762 1608.838 1610.407 1582.262 1538.802 1548.485 1563.83 1587.95 1604.545 1588.615 1594.44 1600.98 1569.167 1561.835 1561.813 1542.84 1548.968 1534.065 1505.593 1483.432 1476.43 1467.79 1494.285 1509.252 1496.088 1474.907 1452.743 1414.848 1412.002 1396.12 1384.807 1392.735 1400.825 1421.165 1445.407 1481.068 1466.89 1449.15 1424.26 1405.098 1387.708 1373.373 1359.453 1346.738 1334.623 1315.287 1303.265 1291.123 1275.44 1261.568 1245.132 1231.56 1215.073 1200.813 1191.973 1189.625 1165.328 1150.203 1119.463 1075.16 1059.843 1098.105 1092.21 1073.05 1049.132 1032.13 1017.03 995.56 966.4475 976.6125 1000.345 982.4025 1006.275 1021.11 997.67 1000.578 990.6675 973.925 968.0625 942.8825 927.3 920.7025 919.1275 896.2075 873.995 849.74 837.0675 822.7325 811.875 823.87 834.67 827.5575 814.1725 793.5425 768.65 771.0775 777.82 769.165 755.9375 758.7725 756.39 747.26 748.81 746.315 736.255 727.1375 704.825 686.415 666.7675 657.4225 651.52 666.3825 670.835 674.1475 676.1675 666.73 663.54 659.7175 646.68 631.36 610.9325 627.3525 624.4225 597.015 588.31 606.64 611.6775 618.125 607.575 590.01 582.4875 572.8025 572.0575 564.8 551.4225 541.235 525.43 518.6425 516.1675 504.4675 500.5425 501.4175 487.7325 469.9325 462.2875 461.6575 479.88 497.6725 496.6125 492.6325 493.95 488.815 481.2475 473.225 472.5025 458.48
2741.258 2829.685 2627.407 2876.677 2907.958 3173.617 3042.472 3201.823 3327.4 3291.455 3398.478 2988.235 2699.03 2450.575 2149.433 2126.31 2189.15 2342.008 2341.545 2299.292 2375.935 2806.1 2861.498 2704.025 3094.905 2747.792 2566.565 2507.61 2990.005 2964.462 2765.08 2815.87 3132.635 3391.798 3177.302 3213.425 3097.045 3069.008 3301.01 3403.347 3150.35 3089.67 2949.05 2753.163 2864.472 2596.218 2383.458 2057.585 1851.81 1744.037 1679.35 1648.132 1666.172 1611.672 1556.483 1563.275 1580.547 1598.493 1609.42 1627.66 1611.318 1627.63 1611.777 1597.257 1593.618 1589.845 1566.162 1578.882 1541.12 1508.95 1499.958 1493.745 1493.272 1502.137 1536.745 1515.507 1472.257 1441.225 1427.505 1421.578 1403.94 1410.425 1417.4 1426.435 1436.203 1467.963 1488.555 1483.78 1460.297 1435.328 1412.585 1396.48 1379.45 1366.35 1354.58 1339.495 1325.728 1310.615 1296.027 1281.69 1266.848 1254.703 1240.4 1225.922 1210.235 1193.48 1178.845 1158.882 1118.45 1090.037 1102.565 1114.435 1130.983 1113.945 1092 1083.083 1061.235 1027.137 984.8725 1003.385 1027.41 1023.33 1020.035 1030.22 1032.983 1022.865 1006.565 991.545 968.585 945.7875 940.4775 930.94 908.915 880.7825 862.19 852.1775 865.9725 860.725 853.5125 858.7675 847.3475 828.7025 813.555 787.6425 781.9575 789.6325 804.8725 799.6225 778.4325 778.2775 772.5125 771.0025 763.4075 746.93 731.6225 715.4275 703.8075 686.3575 674.7325 680.8025 688.775 686.96 679.6175 669.7875 663.395 654.6975 643.9825 626.2925 628.02 619.8725 609.445 588.56 597.5725 596.445 586.175 561.485 576.3675 579.2925 598.485 604.44 587.8375 580.1575 564.9975 554.595 547.6025 539.3125 517.165 518.91 529.6925 515.0775 521.9925 518.3675 495.695 481.435 474.84 467.4325 450.925 471.5275 492.4175 493.175 481.4125 487.01 483.3225 469.915 457.77 446.815 439.145
2805.073 2961.353 2991.512 3118.573 3086.825 3073.552 3119.468 3101.41 2892.278 2818.8 3036.008 2708.323 2325.367 2219.255 2372.393 2696.84 2674.075 2667.31 2692.055 2529.395 2340.535 2647.42 3049.62 3073.145 3273.433 3181.058 2963.215 2738.617 2605.175 2800.035 2921.143 2933.873 3101.262 3483.942 3381.845 3565.305 3407.73 3393.563 3640.337 3384.96 3168.7 2904.133 2724.792 2738.073 2727.012 2657.045 2444.288 2075.31 1801.527 1711.292 1677.897 1645.417 1614.387 1576.723 1574.26 1592.91 1608.843 1625.46 1640.095 1646.762 1640.552 1645.507 1644.115 1628.438 1625.365 1614.71 1591.637 1579.98 1538.045 1525.965 1516.257 1515.18 1505.963 1534.017 1554.157 1508.463 1461.177 1472.708 1448.637 1434.495 1433.26 1433.233 1442.797 1450.527 1458.465 1477.195 1497.427 1482.887 1464.67 1450.073 1423.632 1399.348 1384.652 1372.82 1361.69 1347.7 1334.968 1315.735 1301.895 1288.89 1272.902 1261.065 1244.522 1229.627 1213.353 1185.26 1151.248 1137.68 1132 1150.51 1156.757 1145.292 1133.255 1116.615 1099.38 1070.417 1042.193 1004.482 1015.328 1039.46 1053.228 1051.703 1051.235 1043.115 1035.05 1019.745 996.235 974.7125 955.585 927.9225 909.1925 894.615 883.0975 888.0025 898.1725 892.96 901.8075 887.34 874.17 851.7825 835.88 818.455 795.7075 803.175 815.375 815.94 818.325 799.035 794.9075 780.4625 768.4325 749.125 740.93 728.1525 708.9325 703.9875 703.8225 701.875 707.9525 705.1275 696.4975 672.95 653.1875 635.89 633.33 623.945 622.0525 608.31 597.8525 599.075 585.6175 570.38 573.925 566.505 568.23 546.3475 550.335 563.66 580.84 587.1725 563.9275 569.005 573.1825 567.74 554.315 538.215 538.4675 552.8825 555.0725 543.2025 543.85 521.7175 478.91 462.84 469.345 459.9775 445.92 461.705 473.335 469.96 462.3725 463.865 482.18 477.255 467.945 456.7 459.4975
2793.942 2819.635 2892.58 3151.873 3272.335 3318.317 3282.88 3213.545 3128.548 2756.692 2368.677 2350.365 2075.262 2168.407 2674.625 2983.79 3112.363 2753.788 2560.133 2440.055 2597.613 2576.502 2647.08 2870.67 3187.833 3529.135 3529.813 3227.66 2894.48 2660.313 2715.305 3278.58 3055.15 3302.788 3395.337 3587.468 3423.827 3385.202 3173.887 2915.113 2763.535 2653.058 2718.583 2510.28 2500.393 2506.04 2288.245 2123.85 1847.25 1720.637 1668.445 1646.33 1620.208 1588.985 1608.627 1615.035 1633.517 1651.89 1673.585 1694.767 1669.44 1679.93 1678.463 1662.435 1658.105 1640.963 1620.262 1584.53 1557.517 1549.35 1537.373 1553.608 1518.63 1545.172 1562.995 1505.287 1481.868 1483.752 1468.032 1446.505 1465.162 1450.657 1466.125 1475.213 1486.255 1485.41 1506.748 1493.61 1475.62 1463.9 1443.188 1414.045 1396.44 1384.162 1370.853 1355.037 1338.425 1320.892 1306.708 1291.465 1273.772 1256.078 1235.545 1221.573 1204.91 1178.35 1174.62 1196.083 1181.98 1172.155 1149.505 1145.07 1124.427 1105.238 1080.917 1052.953 1018.965 1024.583 1053.598 1063.575 1070.84 1065.318 1057.057 1046.307 1034.757 1016.69 1000.655 974.6375 949.0975 948.04 922.2775 909.78 929.015 928.1925 930.13 913.025 905.8425 877.5475 851.0225 828.535 819.99 808.7525 827.01 830.2875 824.4425 810.44 793.8425 796.9025 774.4025 758.3825 741.565 734.1725 726.865 727.475 732.3275 734.605 731.755 722.27 712.625 690.5725 674.2625 675.01 663.525 648.5325 613.7625 596.08 594.44 582.9275 572.225 567.175 570.1875 553.7875 551.9325 542.9125 552.26 531.7475 533.245 547.09 560.5075 557.44 538.375 535.645 546.66 536.405 533.49 530.485 523.93 542.55 540.665 524.8625 527.5025 491.345 460.01 448.945 456.635 452.305 450.6625 448.1475 465.645 461.075 453.52 454.39 464.81 470.55 471.38 480.0275 477.3725
2558.883 2627.025 2900.02 3105.345 3280.45 3264.022 3274.675 3198.018 3060.813 2934.653 2523.343 2128.59 2085.302 2238.008 2468.698 2579.087 2661.045 2688.393 2325.485 2240.4 2653.395 3079.298 3112.252 2897.955 2974.198 3189.535 3560.288 3579.627 3294.36 2958.005 2728.99 3291.667 3327.613 3468.895 3628.605 3559.535 3645.262 3524.313 3170.988 3085.51 3038.123 2714.12 2598.375 2736.805 2479.64 2279.465 2251.235 2180.813 1972.535 1832.64 1721.59 1657.713 1611.063 1621.415 1641.535 1652.598 1665.257 1681.41 1693.445 1717.172 1710.618 1710.125 1716.915 1709.26 1688.275 1658.395 1651.635 1612.845 1581.752 1576.6 1556.223 1572.21 1553.715 1545.87 1561.445 1510.17 1522.575 1506.443 1470.63 1483.52 1487.925 1492.728 1489.755 1504.035 1509.83 1518 1517.297 1503.365 1486.76 1470.502 1453.35 1436.882 1408.945 1390.552 1373.8 1357.035 1339.145 1320.282 1301.958 1283.94 1267.75 1255.542 1260.738 1245.4 1222.45 1222.025 1219.325 1206.323 1188.64 1173.193 1151.713 1121.75 1116.853 1088.177 1057.925 1042.823 1050.483 1061.375 1062.775 1069.41 1072.935 1066.948 1058.195 1046.505 1025.963 1003.698 991.11 989.4725 974.4875 940.135 955.15 949.0925 941.9625 923.905 907.98 893.87 873.625 860.2025 847.135 842.3775 836.385 844.2425 846.88 832.8125 816.05 805.4825 795.94 771.4675 763.0725 763.8725 766.7975 766.62 759.7025 750.6825 741.855 719.3475 719.845 695.505 686.61 672.6575 651.0275 637.85 632.0925 625.7125 609.2275 594.47 573.5325 562.7625 553.3175 544.0975 546.87 542.6975 530.31 526.1075 526.9775 520.2525 526.03 532.47 551.685 546.5775 526.0825 514.795 531.53 535.35 515.1525 508.545 504.015 535.355 526.0725 498.95 490.1725 475.3625 459.6425 441.3925 444.64 455.1725 447.085 437.535 464.0075 450.4125 442.2575 436.275 443.94 448.3625 437.2625 461.6375 462.4925
2270.643 2183.962 2579.02 2982.525 2985.657 3194.708 3253.992 3082.325 3077.345 2846.645 2394.51 2079.097 2300.66 2130.75 2156.245 2146.073 2141.933 2201.913 2527.13 2422.9 2427.143 2606.407 2843.627 3038.83 2925.675 3083.548 3235.212 3427.685 3593.445 3348.262 2892.075 2908.78 3387.248 3464.923 3627.292 3595.383 3438.5 3478.935 3245.405 3258.38 3099.827 3118.47 3063.86 2889.555 2696.51 2438.028 2255.435 2208.893 2049.262 1812.963 1717.135 1669.155 1634.507 1634.93 1668.953 1687.635 1713.395 1719.868 1736.265 1741.498 1770.142 1766.833 1768.55 1751.917 1718.86 1687.795 1685.422 1649.042 1609.235 1603.04 1585.405 1573.802 1596.203 1578.83 1575.83 1542.623 1529.882 1493.38 1486.62 1502.45 1519.045 1522.353 1522.55 1527.62 1543.8 1546.475 1531.71 1511.853 1494.248 1474.145 1453.968 1437.417 1421.305 1392.838 1373.318 1355.645 1337.4 1324.958 1311.78 1297.555 1282.728 1269.95 1264.915 1259.46 1244.468 1229.307 1214.162 1197.667 1180.01 1152.882 1129.27 1103.805 1079.205 1067.535 1078.738 1096.682 1089.655 1091.238 1076.315 1065.563 1068.955 1066.777 1053.858 1029.953 1025.547 1024.078 1005.972 973.3325 962.275 972.7 966.045 958.335 946.6075 930.5325 911.5775 887.405 897.0925 881.925 861.9575 871.8125 861.6 847.75 835.15 819.23 804.63 794.6075 782.865 785.5375 790.24 781.1725 766.42 751.8825 748.37 735.565 719.535 706.5075 687.9125 669.675 654.0875 641.165 628.1275 607.615 601.68 589.68 578.0375 568.9575 559.3525 552.0125 544.5675 541.2025 525.9875 527.36 523.23 512.5375 505.75 500.315 512.365 523.9275 544.9325 538.715 543.105 513.2975 512.67 525.1275 513.61 482.1625 486.2575 522.03 512.2625 482.2325 469.245 463.1925 451.845 449.8775 437.0275 450.3025 448.7925 427.8725 455.94 458.425 430.3075 411.2025 429.8675 435.31 418.575 428.64 425.515
1970.568 1916.657 2178.005 2246.875 2399.952 2928.13 3013.465 2841.113 2825.657 2433.268 2109.482 2149.615 2258.883 2098.395 2071.58 2161.67 2154.115 2211.42 2558.617 2569.98 2427.39 2505.845 2490.667 2609.298 2689.175 2932.157 3099.157 3015.95 3394.952 3552.998 3110.985 2764.952 2948.2 3170.39 3220.927 3504.258 3704.873 3771.677 3548.942 3727.808 3637.357 3221.423 2788.538 2545.157 2458.502 2388.095 2279.41 2337.958 2156.982 1828.54 1734.162 1684.4 1640.14 1666.05 1704.125 1720.41 1729.897 1763.855 1797.723 1796.565 1790.81 1807.7 1813.935 1779.002 1747.41 1717.213 1714.23 1669.315 1644.208 1644.542 1613.818 1595.213 1612.733 1618.823 1592.932 1587.38 1533.315 1506.938 1509.625 1527.205 1547.32 1562.14 1566.108 1582.733 1580.068 1562.002 1540.307 1525.547 1506.368 1486.613 1462.193 1435.677 1419.035 1405.272 1387.725 1368.715 1351.325 1334.845 1320.022 1304.295 1289.81 1274.93 1261.448 1253.05 1229.527 1205.2 1180.955 1157.557 1141.945 1126.252 1112.787 1105.392 1116.382 1103.188 1123.525 1123.94 1117.53 1109.877 1095.458 1072.463 1061.585 1051.868 1044.435 1035.762 1021.487 1004.775 988.8525 1002.042 991.8925 987.635 980.515 964.8625 940.0575 925.7425 917.48 913.8925 892.9 884.43 890.3625 876.4125 858.78 837.305 826.7625 823.9475 826.1725 811.8 809.715 802.0225 795.4825 777.4325 761.5075 739.7475 714.5225 704.205 688.2075 676.695 664.895 657.8025 652.5425 644.0925 637.8175 640.1 636.215 624.5575 614.33 604.8675 604.3575 589.9625 566.1325 542.39 552.695 547.1925 533.985 519.96 523.1575 510.54 488.5225 507.29 526.515 524.3025 514.43 527.3 488.9225 494.895 503.835 469.7675 471.1675 483.205 483.245 482.08 467.6375 459.3075 450.5925 448.8 440.565 430.7275 433.45 421.9 426.095 429.44 431.7825 415.1425 411.0325 411.32 406.86 411.395 409.01
1867.203 1841.563 1830.785 1906.5 2039.498 2102.478 2254.3 2186.48 2372.708 2500.837 2598.2 2475.23 2349.38 2216.56 2523.333 2784.538 2616.73 2402.692 2620.73 2818.695 2851.67 2930.4 3143.742 3029.433 2649.645 3046.02 3287.985 3213.31 3350.998 3368.637 3046.617 2824.222 2928.7 3103.205 3479.39 3418.7 3671.72 3521.41 3510.45 3717.067 3805.59 3375.835 3108.085 3011.605 2842.048 2561.998 2446.308 2425.365 2247.252 1978.557 1752.415 1678.057 1672.517 1723.608 1746.47 1772.157 1756.407 1790.563 1844.983 1866.693 1835.708 1851.43 1833.675 1806.292 1779.525 1749.42 1734.77 1678.118 1683.093 1680.5 1646.03 1632.677 1616.345 1657.68 1619.927 1600.36 1545.46 1525.282 1527.64 1552.84 1602.23 1617.515 1626.252 1607.75 1588.177 1569.13 1547.532 1526.24 1505.44 1482.922 1458.593 1451.662 1441.478 1424.55 1405.407 1379.843 1358.495 1341.55 1327.223 1309.647 1293.775 1276.955 1260.075 1240.792 1214.348 1188.33 1183.443 1168.915 1165.045 1162.345 1140.9 1148.113 1143.922 1143.632 1138.59 1127.79 1110.162 1101.975 1093.08 1084.642 1076.757 1068.355 1047.205 1021.938 1030.545 1031.802 1023.482 1014.282 1005.662 984.9025 969.175 959.4375 953.9275 951.4125 930.6325 907.1325 908.95 902.335 888.6775 874.44 859.4125 853.865 856.13 849.9325 840.46 823.5375 798.3575 784.975 772.7675 760.735 756.895 745.875 742.815 732.35 721.19 719.11 709.035 703.165 693.6025 682.3 668.475 653.73 640.5625 628.73 613.07 600.2125 584.1 571.11 563.23 574.4025 576.3425 564.8675 565.7625 555.375 551.5375 542.855 517.9625 483.64 481.7 499.425 497.9275 504.4075 476.7175 473.2875 480.0175 465.505 457.01 471.205 463.505 473.4375 466.48 465.3075 467.3225 466.4525 453.4625 450.0175 439.125 436.8975 425.71 425.08 416.855 412.68 409.8725 401.6125 396.97 393.385 393.3175
1745.208 1917.015 1958.027 2078.24 2175.665 2373.863 1999.205 2255.413 2490.373 2672.438 2570.625 2548.62 2674.19 2974.775 2644.673 2821.022 3098.732 2729.53 2842.385 3023.752 3381.36 3324.492 3523.357 3210.462 2951.938 2964.498 3130.385 3386.383 3333.93 3274.208 3402.155 3025.225 2979.738 3131.103 3356.042 3653.495 3573.195 3316.468 3134.715 3370.8 3541.23 3143.79 2838.325 2850.35 2828.847 2807.14 2576.965 2550.442 2378.535 2154.645 1831.738 1680.517 1723.17 1813.167 1845.667 1857.965 1817.502 1795.805 1871.647 1913.627 1884.805 1884.132 1867.39 1839.47 1812.813 1790.76 1733.578 1729.21 1739.583 1728.453 1683.005 1664.323 1644.255 1645.473 1652.605 1615.84 1586.485 1559.755 1576.06 1602.598 1668.99 1654.51 1639.777 1616.7 1597.193 1575.238 1554.787 1535.498 1515.9 1493.79 1474.118 1459.675 1444.752 1428.63 1411.512 1395.095 1370.463 1347.845 1332.815 1315.97 1297.588 1275.078 1243.377 1223.63 1228.47 1227.165 1203.98 1199.063 1194.142 1181.34 1170.973 1175.693 1166.57 1159.507 1147.195 1133.333 1127.23 1116.72 1105.248 1085.48 1069.05 1055.782 1047.182 1052.353 1046.12 1036.21 1026.662 1010.412 998.69 995.265 984.875 973.9225 954.67 936.91 924.3775 927.5925 918.815 903.045 888.46 881.895 879.255 866.1025 851.2675 840.8275 828.9275 814.185 816.255 808.875 800.835 790.9475 785.825 775.38 765.2175 751.2325 742.16 731.4775 723.7025 715.05 700.3725 690.89 685.6475 679.185 659.5 650.7075 637.87 624.295 595.6025 599.655 592.82 586.74 578.025 565.3725 562.135 545.1475 541.4325 548.875 539.005 517.125 498.275 474.6225 465.345 465.7 462.775 455.19 460.9475 452.1325 450.17 458.5075 452.1025 456.02 455.2325 449.7775 464.005 473.11 474.375 467.68 462.7825 457.07 445.1025 464.225 444.6325 439.8325 424.74 413.0825 414.7075 408.885 402.7225
1867.708 2037.777 2323.77 2324.145 2469.225 2587.335 2069.343 1992.81 2109.442 2217.855 2272.808 2443.863 2628.625 3096.43 3175.282 2889.772 2906.323 2914.927 2936.715 3191.177 3506.163 3546.302 3520.975 3635.087 3299.635 2915.458 3124.96 3410.69 3538.715 3434.15 3466.16 3220.012 3139.77 3421.952 3468.563 3563.815 3354.538 3137.387 3017.702 2985.285 3174.157 2976.198 2829.195 2652.255 2607.13 2509.407 2560.673 2498.962 2445.238 2309.76 1911.74 1763.682 1764.978 1807.44 1942.935 1939.302 1894.757 1832.6 1911.488 1966.052 1945.005 1906.802 1913.007 1876.137 1851 1836.892 1772.098 1748.198 1817.368 1774.785 1726.015 1697.252 1693.463 1650.277 1674.535 1690.51 1639.36 1609.248 1628.34 1689.455 1694.025 1672.25 1646.578 1627.838 1606.093 1583.238 1563.38 1543.713 1521.705 1509.208 1492.115 1469.162 1443.708 1426.6 1411.78 1399.103 1384.635 1363.762 1338.927 1320.135 1294.813 1267.55 1258.885 1270.96 1254.787 1240.037 1213.083 1219.185 1212.417 1199.443 1197.088 1189.973 1177.14 1165.165 1155.672 1141.885 1131.917 1114.917 1099.45 1083.59 1075.177 1078.835 1069.677 1056.792 1048.84 1033.402 1023.48 1018.107 1009.08 994.6925 973.735 965.88 959.3375 955.045 934.445 923.3625 915.78 910.155 900.5475 890.0625 872.3225 862.6425 860.9575 849.89 841.8525 833.84 821.92 810.2375 797.185 790.6 778.7275 769.5425 763.7725 758.14 754.22 737.7275 722.1425 695.12 682.255 667.5775 667.535 670.875 651.1075 620.7775 611.56 600.4375 584.9675 578.64 572.92 567.42 551.865 536.5775 529.1675 517.415 510.05 505.26 508.815 514.9925 512.24 506.58 485.245 466.9125 462.4775 451.505 448.175 453.955 445.9025 438.74 433.5375 430.6225 434.6525 435.92 446.6475 454.105 471.4825 476.83 479.085 471.1 461.11 479.54 479.0675 452.3575 436.6975 427.775 427.5325 415.8975 404.42
1982.915 2243.167 2372.702 2616.48 2844.815 2862.99 2358.288 2037.64 1989.868 2012.593 2136.62 2425.962 2976.673 2832.137 2923.305 3270.837 3304.732 3326.36 3264.57 3005.195 3127.775 3584.355 3603.063 3517.03 3049.88 3257.305 3067.762 3283.38 3505.998 3427.212 3856.873 3456.127 3354.55 3618.468 3468.57 3175.675 3082.26 3038.692 3303.9 3432.817 3091.955 2705.48 2639.317 2563.305 2496.345 2327.907 2248.978 2255.145 2135.97 2150.542 2074.445 2011.935 1859.108 1808.225 1851.56 1923.057 1942.97 1868.495 1925.363 2001.385 1965.338 1971.18 1949.835 1902.275 1899.157 1871.4 1799.32 1766.55 1854.785 1811.085 1767.922 1726.235 1724.56 1672.343 1687.772 1699.64 1684.27 1687.823 1710.902 1729.948 1703.427 1676.19 1660.932 1638.052 1617.868 1594.297 1575.915 1555.517 1543.18 1522.515 1501.58 1479.91 1458.738 1438.427 1421.375 1413.775 1398.012 1377.902 1342.657 1319.99 1301.77 1286.468 1292.162 1283.772 1271.475 1239.782 1238.04 1232.87 1225.315 1215.79 1206.805 1196.945 1184.353 1171.95 1154.755 1135.637 1124.473 1114.3 1098.01 1096.43 1093.123 1083.037 1068.61 1055.74 1046.397 1041.53 1030.642 1016.465 998.0825 988.1525 981.26 971.9875 959.61 951.12 945.2875 934.55 922.2425 911.08 903.0125 897.16 886.6325 875.345 863.8325 853.8 843.765 832.125 815.8075 806.5375 796.5025 783.4775 772.5075 765.325 752.0025 739.6475 723.795 714.825 692.99 689.1875 666.7475 641.2725 631.7775 627.56 610.7575 601.98 583.03 571.5625 559.915 554.16 550.7725 549.065 541.135 547.7825 539.745 548.405 540.2575 524.8775 502.88 492.19 482.5925 477.33 469.52 465.62 461.5025 459.165 469.155 470.0125 467.38 463.255 453.9075 448.34 434.1625 423.6325 418.125 427.5325 438.8775 448.26 460.4825 474.19 485.92 487.1775 495.1125 486.8325 471.9875 441.8125 431.96 424.765 410.13
2134.048 2420.762 2820.173 2670.84 2903.905 2855.413 2640.427 2265.71 2004.255 2107.775 2246.265 2116.265 2274.292 2449.1 2535.833 2560.538 2609.685 2644.545 2719.09 2808.37 3097.327 3268.823 3503.083 3276.92 3525.245 3367.032 3184.595 3549.95 3464.052 3623.073 3845.933 3504.462 3701.573 3369.673 3383.325 3008.488 2930.74 2906.23 3048.407 3117.438 3432.085 3411.302 3048.36 2735.845 2459.955 2424.93 2291.015 2207.893 2266.548 2064.86 2289.093 2291.35 2013.12 1860.478 1931.892 1930.625 1991.88 1925.83 1956.66 2024.025 1994.047 2011.208 1980.865 1942.733 1960.073 1904.637 1810.468 1779.68 1848.563 1837.277 1790.23 1765.18 1722.363 1710.932 1702.07 1727.365 1740.64 1777.772 1753.132 1733.118 1718.35 1699.91 1679.585 1654.292 1633.605 1610.54 1589.25 1574.765 1554.422 1530.248 1505.198 1486.33 1465.155 1439.99 1413.922 1396.027 1376.275 1360.848 1355.98 1340.975 1310.275 1317.468 1306.002 1288.348 1266.848 1267.195 1261.56 1242.998 1236.542 1228.912 1217.147 1206.983 1189.85 1170.835 1158.248 1151.348 1135.16 1123.94 1119.468 1108.693 1097.52 1086.07 1074.368 1062.407 1049.67 1037.405 1021.232 1012.617 1009.328 997.3825 983.1325 975.7975 969.7275 957.8975 943.5075 936.7325 929.115 918.2725 906.9925 897.9425 889.82 876.7075 862.0675 846.085 824.72 811.8175 794.3125 779.57 771.25 757.07 738.0925 730.8975 718.015 706.8525 691.3025 681.8425 663.765 647.955 639.7725 625.6525 611.335 602.4325 597.8725 592.2025 589.37 600.4 590.64 585.3325 586.295 588.845 569.63 584.04 576.7225 568.605 551.055 538.2925 529.5975 528.31 508.805 501.4625 486.9675 487.96 498.035 476.6475 487.9925 488.3275 482.015 470.97 467.4775 456.1125 449.7825 448.6125 443.775 427.4925 411.0275 409.98 418.84 433.525 460.6525 461.235 469.3975 456.425 469.635 444.8675 440.99 417.1825 401.435
2395.63 2355.02 2875.28 2873.113 2962.05 2882.202 2641.992 2371.895 2153.79 2375.62 2503.96 2366.87 2346.663 2322.76 2553.115 2780.9 3013.073 3038.353 2966.873 2865.718 2852.623 3197.145 3484.87 3481.933 3586.018 3199.76 3166.255 3463.97 3382.538 3814.008 3880.752 3434.058 3642.202 3412.53 3111.552 2952.425 2886.255 2864.81 2886.333 2933.36 3262.67 3300.195 3237.778 2977.14 2844.27 2513.605 2548.43 2459.528 2183.64 2144.34 2365.157 2392.603 2067.087 1917.475 2014.315 1987.995 2031.498 2021.938 2030.068 2057.875 2047.093 2036.295 2029.855 1978.182 2008.387 1924.195 1821.182 1818.118 1860.2 1856.68 1821.58 1798.235 1750.238 1749.5 1732.427 1727.34 1713.24 1710.185 1687.193 1675.335 1713.135 1719.645 1692.613 1671.345 1647.305 1625.915 1610.01 1586.21 1557.863 1537.098 1519.4 1500.177 1478.672 1442.29 1425.635 1413.355 1405.593 1385.74 1363.015 1347.56 1331.213 1331.43 1317.64 1295.823 1284.348 1285.203 1276.108 1265.63 1247.688 1231.963 1214.527 1200.315 1191.417 1180.402 1169.86 1152.037 1141.53 1135.282 1128.68 1113.985 1101.863 1090.667 1077.938 1062.55 1047.108 1038.802 1033.392 1022.13 1011.862 1001.992 993.2725 980.4675 970.1475 962.1725 949.595 938.035 929.6675 915.8825 904.1225 892.03 880.115 865.03 850.9125 832.295 818.86 805.01 794.82 789.3225 774.64 763.6675 753.215 745.8875 729.8625 717.4625 705.5675 681.9675 683.3275 675.3475 659.48 654.2875 638.6375 634.73 627.63 619.9325 605.945 621.3075 607.995 604.7325 608.015 592.25 593.4675 612.035 603.345 581.8675 571.135 577.2475 562.855 534.73 538.4775 514.2225 519.24 542.585 515.2975 488.2625 521.49 515.5675 490.105 459.7825 445.73 458.055 453.96 458.16 460.45 465.0575 444.0175 419.42 402.5 413.35 427.165 438.765 437.9075 438.0725 449.55 436.32 419.7825 423.985 410.9
2604.7 2611.39 2532.03 2642.407 2961.298 3151.67 2878.61 2511.478 2367.875 3204.965 2996.84 2663.02 2398.492 2417.722 2423.115 2390.74 2846.36 3173.285 3318.955 3306.768 3106.262 3167.985 3413.708 3410.728 3254.837 3069.038 3065.55 3263.795 3567.502 3776.857 3553.995 3229.823 3254.69 3079.09 2982.48 2907.69 2865.355 2883.95 2864.077 2807.798 2944.155 3300.22 3211.365 3203.885 3208.695 3024.097 2603.982 2353.325 2078.475 2314.748 2573.377 2537.04 2191.64 1958.223 2040.785 2111.327 2118.558 2067.972 2065.462 2089.972 2075.29 2073.048 2033.873 2041.435 2013.465 1904.743 1840.377 1859.915 1884.353 1844.432 1800.983 1780.775 1751.593 1772.375 1750.39 1713.465 1699.11 1672.92 1654.515 1640.213 1656.96 1681.44 1686.252 1679.203 1660.943 1644.377 1621.73 1593.945 1572.81 1555.787 1528.833 1497.87 1472.465 1462.125 1446.405 1441.03 1416.045 1392.797 1381.618 1356.642 1360.87 1339.968 1321.088 1303.755 1307.002 1295.537 1280.625 1265.32 1249.645 1239.848 1228.233 1214.015 1202.672 1188.555 1174.213 1163.06 1150.618 1138.61 1129.02 1117.075 1102.33 1088.28 1075.145 1066.125 1061.985 1047.57 1036.82 1024.29 1012.458 999.645 986.0225 974.7225 962.52 952.0175 939.8875 929.915 918.3675 909.185 896.9025 889.025 876.3225 864.645 852.9775 851.65 844.0525 830.9075 826.705 815.05 807.69 798.1525 789.92 776.8875 763.185 749.2425 728.7025 713.605 726.54 704.895 701.665 686.4425 676.9375 676.4075 655.645 635.6225 636.1 644.38 638.83 625.935 633.3875 621.665 616.4325 630.6375 621.73 609.9375 602.9225 593.8075 563.745 573.6 552.8525 529.0525 555.2275 545.5475 516.6675 503 524.5 528.0625 491.89 456.97 439.155 436.0025 433.71 438.67 454.415 469.525 471.89 465.455 409.1625 400.5675 413.045 423.1975 421.6025 421.6625 437.6975 437.16 423.63 408.2825 416.205
2635.863 2852.905 2892.22 2765.61 2931.31 3252.968 2899.407 2769.603 2498.755 2994.097 3338.685 2975.452 2904.242 2635.022 2554.21 2450.195 2709.133 2905.673 3147.78 3391.677 3548.302 3491.325 3527.873 3645.05 3229.835 2930.288 3010.735 3221.843 3558.808 3884.133 3539.91 3251.002 3083.883 2999.123 2972.458 2919.745 2876.518 2956.27 2911.607 2793.282 2784.063 2959.745 3250.625 3334.917 2939.087 2763.54 2338.577 2154.752 2196.837 2208.47 2491.625 2643.133 2534.205 2136.915 2094.805 2091.542 2158.107 2130.413 2109.945 2129.505 2126.647 2114.627 2076.073 2089.42 2016.767 1896.417 1893.767 1889.42 1864.69 1872.698 1839.833 1835.06 1812.275 1802.745 1771 1744.815 1758.27 1724.13 1677.007 1640.863 1612.983 1617.805 1615.88 1613.193 1632.765 1643.563 1627.037 1603.757 1580.065 1550.705 1522.167 1498.802 1500.083 1475.422 1473.073 1446.87 1428.438 1407.302 1383.578 1380.975 1363.945 1348.72 1329.022 1326.012 1312.537 1294.172 1284.833 1278.583 1267.94 1255.365 1239.77 1221.845 1205.762 1191.782 1176.8 1163.44 1150.75 1134.4 1117.248 1115.85 1104.71 1094.708 1085.82 1072.767 1059.517 1050.123 1036.802 1023.255 1013.35 1006.628 997.4275 983.0675 970.26 957.1625 948.72 938.8475 932.12 920.64 908.8675 898.0225 887.155 872.775 863.4075 852.9675 839.5025 828.425 821.645 811.1575 801.2575 792.2825 783.0375 773.235 770.7825 760.5875 749.45 741.805 727.625 719.875 711.3975 705.4025 698.44 691.565 687.4975 674.35 666.095 667.96 658.7525 647.6375 637.495 627.2075 617.34 607.95 607.625 597.5675 601.075 603.9625 590.845 581.4825 569.065 564.4775 564.255 553.295 533.9 505.23 499.6775 487.56 481.0825 465.7925 451.7675 439.9675 431.69 415.99 435.17 452.475 441.56 454.98 416.985 394.47 403.18 410.42 413.06 427.9475 439.69 438.07 422.3975 409.7575 389.5325
2765.512 2971.093 2841.087 2569.985 2646.127 3094.5 2967.785 2641.215 2772.435 3149.28 3374.748 3548.33 3170.76 3331.528 3093.087 2735.195 2753.18 3060.995 3339.845 3498.153 3677.68 3660.508 3768.06 3756.87 3280.792 2983.77 2905.742 3110.573 3525.905 3823.745 3502.785 3234.278 3011.883 2934.68 2880.57 2870.742 2853.002 2918.565 2855.84 2833.41 2923.145 3110.67 2786.978 2833.18 3098.7 2547.683 2336.663 2257.435 2502.95 2392.613 2367.938 2579.91 2723.315 2514.195 2240.732 2153.573 2188.03 2185.63 2181.115 2180.532 2166.145 2142.462 2138.495 2135.555 1967.118 1953.802 1942.08 1913.62 1925.56 1906.11 1868.405 1847.047 1797.662 1779.86 1770.667 1799.323 1771.49 1734.28 1701.853 1678.035 1618.978 1583.443 1576.718 1572.012 1577.615 1575.095 1588.167 1574.765 1553.355 1538.407 1532.363 1529.642 1508.713 1496.82 1470.512 1454.32 1435.797 1414.838 1409.073 1390.363 1378.35 1364.583 1357.598 1333.755 1315.495 1312.078 1298.93 1281.13 1269.635 1252.555 1234.91 1219.603 1206.017 1189.637 1174.585 1160.208 1143.08 1127.515 1116.807 1091.262 1077.785 1077.458 1065.24 1056.042 1043.257 1032.2 1033.493 1022.12 1009.085 995.165 986.3925 974.1575 964.3925 953.7625 940.6375 930.8025 920.4975 906.95 892.9825 885.09 871.6275 862.9 850.67 835.695 824.8975 812.69 800.34 795.5275 786.2775 779.9225 770.1075 756.73 745.3725 743.6275 735.42 722.4825 720.4825 703.6225 690.5875 678.78 671.025 670.275 672.805 675.1175 651.36 645.145 650.205 644.175 632.5975 625.0475 622.175 611.425 590.5475 570.6925 566.6425 584.855 585.4375 531.04 520.83 523.9475 516.6225 510.525 518.895 504.03 483.665 473.8075 478.265 473.15 470.445 454.745 438.4125 421.9425 413.56 408.1875 406.645 408.2875 405.1925 387.8975 394.1875 401.2875 412.9475 425.96 437.5925 425.395 427.9125 425.62 400.995
2871.23 2725.635 2597.005 2447.91 2323.86 2464.478 2627.155 2630.363 3037.19 3473.925 3450.337 3742.995 3487.183 3653.535 3195.282 3169.855 3155.242 3003.685 3278.18 3423.087 3517.407 3722.59 3735.895 3778.505 3607.177 3003.76 2857.715 3079.505 3572.89 3679.718 3368.195 3123.143 2963.433 2874.695 2842.42 2805.385 2796.883 2876.385 2841.85 2817.515 3002.843 3132.845 2858.055 2676.093 2901.64 2696.03 2369.423 2495.94 2527.075 2440.837 2426.808 2538.798 2780.347 2630.357 2328.688 2211.28 2259.198 2224.933 2253.853 2233.552 2223.22 2191.07 2181.09 2050.06 2041.39 2032.262 1973.063 1950.802 1902.07 1875.34 1870.637 1848.813 1866.585 1851.728 1837.108 1802.988 1764.565 1730.99 1700.292 1667.772 1646.738 1604.785 1564.953 1542.738 1538.078 1535.392 1553.235 1580.47 1601.017 1584.818 1565.375 1545.123 1529.99 1506.402 1480.04 1459.04 1440.608 1434.31 1417.66 1402.797 1394.12 1377.132 1364.805 1344.998 1330.985 1313.603 1295.575 1276.52 1260.052 1244.037 1229.495 1216.598 1205.512 1196.448 1184.422 1163.208 1142.07 1118.44 1112.708 1101.302 1082.975 1057.368 1036.123 1019.065 1022.792 1025.06 1031.61 1018.063 1013.708 1002.135 990.5525 977.1475 968.8275 955.7025 941.3775 933.125 922.8375 912.2025 903.29 897.4425 887.0525 874.1575 858.0325 850.365 844.58 836.41 821.3475 802.5375 788.8825 769.88 755.6325 742.965 729.3975 717.065 707.995 698.7375 689.5325 682.58 667.085 662.4525 650.3825 639.9475 636.435 647.04 639.5775 615.31 610.9275 599.7125 586.555 577.08 586.44 607.735 601.8 562.61 536.3475 543.5475 542.95 518.6025 503.34 497.1825 504.75 499.5975 496.85 494.36 480.4925 462.115 457.7 467.08 481.925 483.8525 463.53 466.05 449.1325 430.2325 415.9425 404.84 398.6675 388.3225 385.72 391.565 405.5325 413.015 424.6125 409.3975 420.39 431.585 415.465
2926.19 2841.913 2656.89 2464.4 2310.962 2234.228 2717.77 3075 2788.202 2858.827 3171.123 3338.65 3567.063 3596.665 3393.913 3413.778 3228.288 3407.258 3602.215 3519.835 3536.992 3659.567 3505.655 3455.538 3342.165 2977.48 2916.147 2897.577 3282.29 3526.255 3222.048 3007.015 2917.692 2820.05 2804.935 2783.518 2766.89 2798.518 2784.363 2728.548 2762.6 2886.905 2966.393 2686.115 2588.877 2573.762 2525.593 2716.695 2633.817 2584.313 2526.49 2554.028 2788.595 2714.85 2374.45 2117.875 2212.11 2279.938 2295.317 2289.39 2265.335 2220.655 2198.798 2149.698 2078.795 2005.43 1963.358 1936.01 1938.042 1953.257 1974.998 1943.175 1906.262 1865.295 1825.377 1789.948 1752.468 1715.595 1684.853 1658.96 1639.167 1619.078 1606.725 1578.203 1524.892 1509.323 1517.723 1565.657 1613.922 1607.368 1580.52 1562.445 1536.89 1511.688 1487.675 1472.285 1463.86 1446.588 1428.397 1404.93 1383.425 1364.29 1347.118 1332.685 1317.238 1300.432 1287.105 1276.895 1265.64 1254.502 1242.522 1226.39 1198.943 1177.66 1163.185 1147.35 1129.655 1104.63 1087.53 1071.688 1048.46 1046.03 1047 1033.265 997.11 997.7275 1023.205 1015.565 1003.672 992.8625 980.7975 968.8825 958.895 952.2775 942.5225 928.6375 916.6225 905.4325 894.98 889.3375 882.235 872.98 862.6925 852.245 842.6825 836.69 829.0525 818.8975 811.735 796.24 775.345 767.025 761.985 751.955 733.55 718.465 711.2075 706.1725 701.355 698.6975 694.685 673.66 642.565 625.48 624.555 619.06 617.5825 612.9 601.7625 601.3275 558.605 547.3325 551.0525 563.07 554.1625 524.89 536.4425 531.3075 524.4975 510.6775 478.95 476.3325 471.07 495.885 496.2725 484.0375 458.3475 438.5825 449.2375 449.755 470.7275 474.9275 468.7325 451.54 436.8475 429.1825 436.46 419.8375 395.05 379.985 384.4425 397.05 404.505 389.6475 407.2825 418.88 400.2675
